ncols        168
nrows        31
xllcorner    77385
yllcorner    239365
cellsize     10.000000000000
NODATA_value  -9999
1561.7979736328125 1554.4189453125 1546.365966796875 1537.8489990234375 1529.31005859375 1521.9730224609375 1514.5479736328125 1506.968994140625 1499.407958984375 1492.1209716796875 1485.0460205078125 1476.9599609375 1468.7760009765625 1460.9739990234375 1452.6500244140625 1444.6109619140625 1437.9429931640625 1431.8310546875 1425.5579833984375 1419.405029296875 1413.6610107421875 1407.991943359375 1403.0479736328125 1397.4329833984375 1391.89501953125 1386.6510009765625 1381.51904296875 1376.677001953125 1371.8160400390625 1367.3489990234375 1362.343017578125 1357.9649658203125 1354.248046875 1350.448974609375 1346.593017578125 1343.18603515625 1338.4530029296875 1331.2989501953125 1323.823974609375 1315.758056640625 1308.43701171875 1299.3509521484375 1288.509033203125 1282.1090087890625 1275.85302734375 1270.553955078125 1267.781982421875 1266.6600341796875 1267.75 1270.1800537109375 1275.3399658203125 1281.177001953125 1281.8070068359375 1282.7669677734375 1282.8709716796875 1281.5460205078125 1280.0250244140625 1278.6529541015625 1276.02197265625 1271.677978515625 1266.43505859375 1258.8260498046875 1253.739990234375 1248.39794921875 1243.4420166015625 1238.9239501953125 1234.427001953125 1229.2960205078125 1224.2469482421875 1218.8919677734375 1212.1300048828125 1205.373046875 1199.3680419921875 1193.593994140625 1187.5999755859375 1182.053955078125 1175.5240478515625 1169.5 1163.0050048828125 1156.551025390625 1149.9339599609375 1143.22998046875 1135.7569580078125 1129.1710205078125 1122.4959716796875 1115.2960205078125 1109.23095703125 1101.6710205078125 1095.0970458984375 1089.073974609375 1084.68505859375 1082.612060546875 1080.7960205078125 1077.633056640625 1073.7030029296875 1075.10205078125 1077.4649658203125 1077.4439697265625 1076.1669921875 1075.946044921875 1077.97998046875 1083.7760009765625 1090.324951171875 1096.60498046875 1100.615966796875 1105.56396484375 1110.1099853515625 1114.2239990234375 1118.176025390625 1121.625 1125.1199951171875 1129.8330078125 1134.5849609375 1138.9840087890625 1143.1729736328125 1146.6829833984375 1154.991943359375 1161.9649658203125 1167.739990234375 1173.509033203125 1175.8380126953125 1177.2989501953125 1177.8089599609375 1178.27099609375 1178.5250244140625 1179.134033203125 1178.801025390625 1179.18701171875 1178.748046875 1178.7449951171875 1176.9620361328125 1175.68798828125 1173.7750244140625 1172.7320556640625 1171.4580078125 1169.3690185546875 1166.6839599609375 1163.3199462890625 1160.5050048828125 1156.7099609375 1154.0550537109375 1148.0999755859375 1140.5670166015625 1133.011962890625 1127.4560546875 1119.2989501953125 1111.43896484375 1105.051025390625 1100.031982421875 1095.6739501953125 1093.8370361328125 1093.280029296875 1095.8890380859375 1096.4969482421875 1094.8330078125 1093.35302734375 1094.7679443359375 1098.60595703125 1099.0340576171875 1096.177001953125 1093.3580322265625 1095.154052734375 1097.987060546875 1098.85498046875 1099.22998046875 1098.3060302734375 1097.2879638671875 1095.678955078125
1562.3759765625 1555.04296875 1547.75 1540.5679931640625 1533.5450439453125 1525.8699951171875 1517.7960205078125 1510.0999755859375 1502.218994140625 1493.9449462890625 1486.116943359375 1477.4560546875 1469.053955078125 1461.1190185546875 1453.9100341796875 1447.60498046875 1440.8900146484375 1434.510009765625 1428.3370361328125 1422.155029296875 1416.43798828125 1410.7900390625 1406.0040283203125 1400.4610595703125 1395.6839599609375 1389.7860107421875 1384.3580322265625 1379.3380126953125 1373.344970703125 1367.656982421875 1362.8170166015625 1357.490966796875 1352.9210205078125 1347.8199462890625 1343.1689453125 1339.113037109375 1334.9949951171875 1330.8809814453125 1324.904052734375 1318.4010009765625 1310.2919921875 1299.7669677734375 1291.6629638671875 1282.68798828125 1275.5789794921875 1270.2919921875 1263.9219970703125 1261.9410400390625 1261.802978515625 1263.7860107421875 1267.1839599609375 1270.574951171875 1274.39599609375 1275.426025390625 1275.9849853515625 1275.136962890625 1273.6319580078125 1271.864990234375 1269.81103515625 1267.7239990234375 1265.0810546875 1261.2010498046875 1257.0030517578125 1251.72998046875 1246.5870361328125 1240.5400390625 1235.39599609375 1229.6810302734375 1224.2540283203125 1218.720947265625 1212.72802734375 1207.25 1200.4510498046875 1195.241943359375 1189.3909912109375 1183.511962890625 1177.239013671875 1171.7509765625 1164.510009765625 1158.08203125 1151.2049560546875 1145.0560302734375 1138.1390380859375 1131.35498046875 1124.989990234375 1118.8780517578125 1112.3189697265625 1105.6390380859375 1097.530029296875 1089.8289794921875 1083.2969970703125 1080.343017578125 1079.14697265625 1075.9010009765625 1073.5770263671875 1071.4840087890625 1074.9940185546875 1074.990966796875 1073.2020263671875 1073.5830078125 1075.991943359375 1083.6910400390625 1088.1739501953125 1093.9229736328125 1096.9000244140625 1101.4639892578125 1105.5450439453125 1109.8399658203125 1114.2679443359375 1116.39599609375 1120.9239501953125 1125.6829833984375 1130.10205078125 1133.7530517578125 1137.60400390625 1142.16796875 1147.845947265625 1155.333984375 1161.0489501953125 1167.718994140625 1171.18994140625 1172.9620361328125 1173.3909912109375 1174.2760009765625 1174.864990234375 1174.633056640625 1174.9940185546875 1175.198974609375 1174.5369873046875 1174.657958984375 1173.9169921875 1172.8299560546875 1170.5999755859375 1169.760986328125 1167.7530517578125 1166.156982421875 1164.3310546875 1160.64794921875 1158.0040283203125 1154.8389892578125 1151.741943359375 1148.998046875 1142.5989990234375 1135.9649658203125 1128.6199951171875 1123.740966796875 1116.5159912109375 1107.6080322265625 1100.98095703125 1095.22998046875 1091.197998046875 1088.9420166015625 1089.488037109375 1089.54296875 1087.9949951171875 1087.2900390625 1088.2159423828125 1093.260009765625 1093.5560302734375 1090.988037109375 1089.2149658203125 1090.594970703125 1094.2080078125 1094.2110595703125 1095.093994140625 1094.989990234375 1093.968994140625 1092.657958984375
1564.156982421875 1557.802001953125 1550.5550537109375 1544.43701171875 1538.0050048828125 1530.324951171875 1521.43505859375 1512.1820068359375 1501.56396484375 1493.615966796875 1484.833984375 1476.248046875 1467.717041015625 1459.594970703125 1452.47802734375 1445.9329833984375 1439.8990478515625 1432.45703125 1426.0269775390625 1420.2559814453125 1414.741943359375 1409.989013671875 1405.7259521484375 1401.35302734375 1397.0799560546875 1392.4100341796875 1387.677001953125 1381.64501953125 1376.0679931640625 1371.0150146484375 1365.2230224609375 1359.9630126953125 1354.8360595703125 1349.5760498046875 1343.9580078125 1338.8179931640625 1333.7080078125 1328.3709716796875 1322.60400390625 1317.6929931640625 1309.666015625 1301.4019775390625 1292.9010009765625 1286.7330322265625 1278.22802734375 1269.4949951171875 1263.5860595703125 1256.8719482421875 1255.5989990234375 1257.14794921875 1259.7960205078125 1263.4530029296875 1266.0260009765625 1267.5570068359375 1268.4129638671875 1267.761962890625 1266.241943359375 1264.64794921875 1262.425048828125 1260.654052734375 1259.14599609375 1256.8599853515625 1254.8389892578125 1251.1650390625 1246.8360595703125 1240.8380126953125 1235.8790283203125 1230.7650146484375 1224.447021484375 1218.737060546875 1212.7740478515625 1207.5350341796875 1201.6600341796875 1195.720947265625 1190.260009765625 1183.5899658203125 1177.60400390625 1171.6419677734375 1165.5250244140625 1158.9739990234375 1152.4520263671875 1146.68798828125 1140.9320068359375 1135.1689453125 1128.843994140625 1122.761962890625 1116.3740234375 1108.655029296875 1096.4530029296875 1089.2099609375 1082.9990234375 1079.071044921875 1076.6529541015625 1074.06103515625 1071.7969970703125 1069.0880126953125 1071.947021484375 1072.720947265625 1070.345947265625 1070.9580078125 1073.1729736328125 1079.821044921875 1085.8389892578125 1088.885986328125 1093.56005859375 1097.8270263671875 1102.4659423828125 1106.8289794921875 1110.1639404296875 1112.615966796875 1117.0970458984375 1120.7110595703125 1124.574951171875 1128.2249755859375 1132.2449951171875 1137.126953125 1142.35302734375 1147.1400146484375 1155.1409912109375 1161.1739501953125 1166.68896484375 1168.2459716796875 1168.85498046875 1169.81298828125 1170.2340087890625 1169.8599853515625 1170.77099609375 1170.2650146484375 1170.39404296875 1169.406982421875 1169.3349609375 1168.3919677734375 1167.52294921875 1166.1390380859375 1164.5970458984375 1162.9329833984375 1160.6090087890625 1157.987060546875 1155.0150146484375 1152.3809814453125 1149.2340087890625 1147.5660400390625 1144.998046875 1139.39599609375 1132.322998046875 1126.969970703125 1118.5250244140625 1111.1309814453125 1104.531005859375 1098.0550537109375 1091.2760009765625 1086.9539794921875 1084.77001953125 1082.4019775390625 1082.5909423828125 1081.927978515625 1082.345947265625 1086.4010009765625 1088.8909912109375 1085.8800048828125 1084.5400390625 1086.8909912109375 1090.178955078125 1089.4520263671875 1089.782958984375 1091.5799560546875 1091.177001953125 1089.675048828125
1564.5419921875 1557.697998046875 1551.487060546875 1545.6280517578125 1539.718994140625 1532.969970703125 1524.5260009765625 1514.3909912109375 1499.9959716796875 1490.6259765625 1482.7760009765625 1474.7030029296875 1466.6090087890625 1460.3890380859375 1452.3370361328125 1444.5770263671875 1437.4849853515625 1430.5999755859375 1423.8480224609375 1417.6949462890625 1412.06005859375 1407.094970703125 1401.8780517578125 1397.4110107421875 1393.197998046875 1389.156005859375 1384.7239990234375 1379.7679443359375 1375.22900390625 1369.552978515625 1364.4639892578125 1358.14697265625 1352.741943359375 1347.0849609375 1341.56494140625 1337.572021484375 1332.9210205078125 1328.2659912109375 1319.012939453125 1310.3199462890625 1305.9219970703125 1300.4100341796875 1292.5909423828125 1285.8330078125 1277.5550537109375 1270.3909912109375 1263.85205078125 1257.968017578125 1249.5150146484375 1248.489013671875 1249.4229736328125 1251.2750244140625 1256.43603515625 1259.4429931640625 1259.81494140625 1258.4830322265625 1258.6719970703125 1257.3389892578125 1255.7249755859375 1254.2530517578125 1252.5140380859375 1249.708984375 1247.989013671875 1247.751953125 1244.8089599609375 1239.7879638671875 1234.97998046875 1230.300048828125 1224.9940185546875 1219.625 1213.8160400390625 1207.93896484375 1202.20703125 1196.4749755859375 1190.89794921875 1184.4630126953125 1179.0069580078125 1172.6820068359375 1166.657958984375 1160.4859619140625 1155.14794921875 1149.0260009765625 1143.5849609375 1137.9429931640625 1132.0780029296875 1125.9229736328125 1119.14404296875 1112.08203125 1102.001953125 1092.6180419921875 1083.6309814453125 1078.0849609375 1074.2750244140625 1072.4019775390625 1070.06494140625 1067.2530517578125 1068.6309814453125 1069.75 1068.3499755859375 1067.7569580078125 1069.3370361328125 1073.91796875 1079.0830078125 1085.678955078125 1088.56201171875 1094.56201171875 1099.5660400390625 1103.0030517578125 1106.4410400390625 1108.93994140625 1112.9930419921875 1115.8690185546875 1118.6280517578125 1122.4959716796875 1126.8590087890625 1131.52294921875 1136.7889404296875 1141.583984375 1147.7120361328125 1154.5860595703125 1159.7669677734375 1161.760009765625 1163.5970458984375 1165.06298828125 1165.595947265625 1165.7860107421875 1166.572998046875 1166.2049560546875 1165.6409912109375 1165.3919677734375 1165.137939453125 1164.114990234375 1162.97900390625 1161.989990234375 1160.56201171875 1158.64501953125 1157.18896484375 1155.135986328125 1152.8990478515625 1150.02001953125 1146.738037109375 1144.39599609375 1141.8480224609375 1140.428955078125 1134.8370361328125 1129.574951171875 1123.116943359375 1114.9549560546875 1107.6529541015625 1098.998046875 1091.76904296875 1085.5360107421875 1082.1529541015625 1081.407958984375 1078.6409912109375 1078.363037109375 1079.114990234375 1082.1309814453125 1083.2049560546875 1080.677978515625 1080.31494140625 1083.176025390625 1085.8480224609375 1084.9599609375 1085.262939453125 1087.1639404296875 1087.9649658203125 1087.199951171875
1561.9300537109375 1555.5970458984375 1548.7650146484375 1542.9610595703125 1538.2669677734375 1530.3179931640625 1521.511962890625 1509.9000244140625 1498.885009765625 1490.56396484375 1483.9110107421875 1478.907958984375 1473.279052734375 1464.5389404296875 1456.366943359375 1447.6610107421875 1438.4849853515625 1430.9630126953125 1423.81103515625 1417.7989501953125 1412.1910400390625 1406.6070556640625 1401.510986328125 1395.623046875 1390.4749755859375 1385.529052734375 1380.8199462890625 1375.81201171875 1371.0689697265625 1365.9969482421875 1360.8189697265625 1355.43603515625 1349.6629638671875 1343.281005859375 1337.5970458984375 1332.02197265625 1326.8919677734375 1320.85302734375 1313.883056640625 1307.4990234375 1300.218994140625 1295.22900390625 1288.1629638671875 1282.3179931640625 1275.93505859375 1269.06201171875 1262.239013671875 1255.39697265625 1249.218017578125 1241.98095703125 1240.0169677734375 1241.89697265625 1245.22705078125 1247.64794921875 1247.4639892578125 1247.6109619140625 1249.2490234375 1249.362060546875 1248.1529541015625 1246.928955078125 1246.18701171875 1243.5140380859375 1240.9169921875 1241.3189697265625 1241.3719482421875 1237.4229736328125 1233.0670166015625 1228.4530029296875 1224.0340576171875 1219.25 1213.5350341796875 1208.3189697265625 1203.0970458984375 1197.0679931640625 1191.3719482421875 1185.5050048828125 1178.9959716796875 1172.8299560546875 1167.1319580078125 1160.8360595703125 1155.385009765625 1149.824951171875 1143.9840087890625 1138.7869873046875 1132.822998046875 1126.698974609375 1120.3800048828125 1114.2049560546875 1107.0250244140625 1098.4339599609375 1087.2340087890625 1078.842041015625 1073.968994140625 1070.6820068359375 1068.6839599609375 1065.4630126953125 1065.739990234375 1067.259033203125 1066.2020263671875 1064.5379638671875 1065.740966796875 1068.4620361328125 1073.365966796875 1080.9449462890625 1087.458984375 1090.7989501953125 1095.741943359375 1099.5989990234375 1102.886962890625 1106.072021484375 1108.636962890625 1110.8160400390625 1112.9759521484375 1116.906982421875 1121.259033203125 1125.866943359375 1130.85400390625 1135.7349853515625 1140.5570068359375 1147.10302734375 1153.8179931640625 1155.801025390625 1157.447998046875 1158.8800048828125 1159.9429931640625 1160.89697265625 1161.9969482421875 1162.0040283203125 1161.968017578125 1161.6829833984375 1161.0009765625 1160.2049560546875 1158.77001953125 1158.8480224609375 1156.2259521484375 1154.279052734375 1153.718994140625 1152.1710205078125 1149.9510498046875 1147.4599609375 1144.989990234375 1141.79296875 1139.988037109375 1138.0989990234375 1134.699951171875 1130.0360107421875 1127.81396484375 1120.0830078125 1107.7960205078125 1099.616943359375 1092.2049560546875 1086.56201171875 1080.9610595703125 1077.3590087890625 1074.89501953125 1075.4139404296875 1075.125 1077.60400390625 1078.2039794921875 1075.7939453125 1076.239990234375 1079.135009765625 1080.657958984375 1080.0770263671875 1080.822021484375 1082.43798828125 1083.4830322265625 1084.1800537109375
1559.2449951171875 1552.5980224609375 1546.220947265625 1540.16796875 1534.4219970703125 1526.14404296875 1516.3070068359375 1507.7440185546875 1500.6259765625 1495.7939453125 1491.4010009765625 1483.4200439453125 1474.946044921875 1467.0279541015625 1458.7149658203125 1450.4000244140625 1441.0770263671875 1433.43701171875 1426.5 1420.7640380859375 1414.323974609375 1408.3330078125 1403.0030517578125 1398.635009765625 1392.342041015625 1386.6419677734375 1380.85595703125 1376.2349853515625 1371.136962890625 1366.41796875 1361.8740234375 1356.7919921875 1351.68994140625 1346.7540283203125 1340.8060302734375 1334.47998046875 1327.948974609375 1322.2979736328125 1316.31201171875 1311.4530029296875 1304.123046875 1295.2490234375 1288.18994140625 1281.863037109375 1275.4990234375 1269.7220458984375 1262.551025390625 1255.385009765625 1248.823974609375 1241.14404296875 1234.85205078125 1233.387939453125 1236.384033203125 1236.8060302734375 1237.3499755859375 1238.1700439453125 1238.635986328125 1240.053955078125 1239.9830322265625 1239.9520263671875 1238.133056640625 1236.81103515625 1233.448974609375 1233.72900390625 1235.9129638671875 1235.0670166015625 1231.1319580078125 1225.9830322265625 1221.7679443359375 1217.60498046875 1213.573974609375 1209.3199462890625 1204.2099609375 1197.4720458984375 1191.6510009765625 1185.489990234375 1179.010986328125 1173.10498046875 1167.114990234375 1161.39697265625 1155.7259521484375 1150.4439697265625 1144.7080078125 1139.0269775390625 1133.2099609375 1127.60400390625 1121.491943359375 1114.875 1108.6309814453125 1099.864013671875 1090.93505859375 1082.51904296875 1075.654052734375 1070.7449951171875 1067.4119873046875 1064.2220458984375 1062.5899658203125 1064.531005859375 1063.7239990234375 1061.469970703125 1062.6910400390625 1064.6519775390625 1069.8160400390625 1076.2459716796875 1083.64501953125 1089.68798828125 1091.886962890625 1095.8170166015625 1098.760009765625 1101.64501953125 1104.1409912109375 1105.967041015625 1108.1800537109375 1111.3819580078125 1115.9320068359375 1120.635986328125 1125.427001953125 1130.1109619140625 1134.9339599609375 1140.781005859375 1145.7469482421875 1149.7659912109375 1152.0789794921875 1154.1070556640625 1154.3199462890625 1155.5689697265625 1157.0699462890625 1157.428955078125 1158.279052734375 1158.176025390625 1156.7340087890625 1156.0980224609375 1154.3470458984375 1153.4649658203125 1152.217041015625 1150.4539794921875 1150.1009521484375 1148.887939453125 1146.822998046875 1144.8070068359375 1141.9580078125 1139.31103515625 1137.3909912109375 1135.3719482421875 1132.7769775390625 1129.72705078125 1128.551025390625 1121.47998046875 1109.2769775390625 1100.344970703125 1093.2320556640625 1087.1590576171875 1081.093994140625 1075.91796875 1072.5250244140625 1071.260009765625 1071.1080322265625 1070.8890380859375 1072.6429443359375 1071.18994140625 1072.406005859375 1074.4830322265625 1076.416015625 1075.3790283203125 1075.6929931640625 1076.52197265625 1077.529052734375 1080.1820068359375
1561.4229736328125 1554.2249755859375 1547.7840576171875 1541.782958984375 1535.0989990234375 1527.3470458984375 1523.501953125 1515.491943359375 1507.322021484375 1503.2130126953125 1495.4620361328125 1485.3990478515625 1476.22802734375 1467.89599609375 1459.9310302734375 1452.248046875 1443.93798828125 1435.3929443359375 1428.4119873046875 1421.2010498046875 1414.969970703125 1408.498046875 1404.1290283203125 1399.1090087890625 1394.10498046875 1389.843017578125 1385.384033203125 1381.072021484375 1376.7979736328125 1371.511962890625 1366.2220458984375 1361.0560302734375 1356.02099609375 1351.0780029296875 1346.344970703125 1341.3719482421875 1334.198974609375 1328.375 1321.635009765625 1313.6199951171875 1305.1209716796875 1296.14599609375 1291.3380126953125 1284.7049560546875 1278.1619873046875 1270.8919677734375 1263.970947265625 1256.719970703125 1250.344970703125 1243.572998046875 1234.237060546875 1227.4759521484375 1226.1419677734375 1228.072021484375 1228.06201171875 1229.1629638671875 1227.56494140625 1229.0999755859375 1231.1300048828125 1231.762939453125 1230.6500244140625 1229.166015625 1225.9520263671875 1225.9930419921875 1227.948974609375 1229.373046875 1228.29296875 1223.574951171875 1220.10595703125 1215.803955078125 1212.43505859375 1207.989013671875 1202.990966796875 1197.4019775390625 1191.9189453125 1185.949951171875 1179.541015625 1173.58203125 1168.22900390625 1162.989013671875 1157.5159912109375 1152.7509765625 1146.97998046875 1140.948974609375 1135.6209716796875 1129.0689697265625 1122.969970703125 1116.781005859375 1110.2750244140625 1102.509033203125 1092.9539794921875 1084.7769775390625 1078.5789794921875 1073.2889404296875 1067.1949462890625 1063.25 1059.5849609375 1061.260009765625 1061.239990234375 1058.9840087890625 1059.4429931640625 1061.0699462890625 1065.2139892578125 1074.322021484375 1080.5799560546875 1085.2969970703125 1089.531005859375 1090.7159423828125 1093.501953125 1096.322021484375 1098.4339599609375 1101.050048828125 1103.1240234375 1105.8699951171875 1110.7779541015625 1115.8270263671875 1120.530029296875 1125.073974609375 1130.258056640625 1133.990966796875 1137.4520263671875 1139.262939453125 1147.344970703125 1149.612060546875 1150.0040283203125 1150.6920166015625 1152.176025390625 1152.93896484375 1153.5050048828125 1153.1309814453125 1152.623046875 1151.987060546875 1151.2099609375 1149.343994140625 1148.3060302734375 1146.8189697265625 1145.467041015625 1144.85498046875 1143.2080078125 1140.9820556640625 1139.3060302734375 1136.343994140625 1134.6190185546875 1133.217041015625 1130.8709716796875 1128.3079833984375 1126.3170166015625 1120.615966796875 1110.199951171875 1102.0770263671875 1094.43701171875 1086.780029296875 1079.9010009765625 1074.508056640625 1069.89404296875 1067.3199462890625 1066.7979736328125 1065.1090087890625 1066.2430419921875 1065.260009765625 1067.3409423828125 1069.93701171875 1072.135009765625 1071.0369873046875 1070.8310546875 1071.781982421875 1073.85302734375 1076.6219482421875
1564.2559814453125 1556.7349853515625 1550.4110107421875 1544.8189697265625 1538.051025390625 1534.3759765625 1528.39599609375 1518.97998046875 1512.989013671875 1506.612060546875 1497.2760009765625 1487.2010498046875 1478.3489990234375 1468.739013671875 1458.9599609375 1449.5999755859375 1441.6669921875 1433.8409423828125 1426.1719970703125 1417.6710205078125 1410.6719970703125 1403.928955078125 1398.927001953125 1394.5980224609375 1390.1650390625 1386.1920166015625 1382.404052734375 1380.8179931640625 1379.2919921875 1375.5379638671875 1370.7569580078125 1365.9830322265625 1361.3270263671875 1356.2220458984375 1350.98095703125 1345.9840087890625 1338.93701171875 1330.8809814453125 1322.512939453125 1315.5450439453125 1306.8699951171875 1300.3260498046875 1294.91796875 1287.6209716796875 1280.8330078125 1273.3089599609375 1266.386962890625 1259.35595703125 1251.8370361328125 1246.4630126953125 1237.08203125 1228.1090087890625 1220.89501953125 1219.0780029296875 1221.3590087890625 1221.508056640625 1219.47998046875 1220.551025390625 1223.428955078125 1223.35595703125 1223.1219482421875 1221.404052734375 1218.2760009765625 1217.7110595703125 1219.8709716796875 1222.6309814453125 1223.501953125 1220.7469482421875 1217.6490478515625 1213.636962890625 1209.85400390625 1204.863037109375 1200.822998046875 1196.75 1192.3800048828125 1186.8790283203125 1180.7060546875 1175.2449951171875 1169.39794921875 1164.0340576171875 1158.240966796875 1152.949951171875 1146.8599853515625 1141.1090087890625 1135.06201171875 1129.2889404296875 1122.6669921875 1116.8819580078125 1110.364990234375 1104.011962890625 1095.7840576171875 1084.654052734375 1079.5770263671875 1073.112060546875 1068.845947265625 1062.4200439453125 1057.7550048828125 1056.93701171875 1058.4300537109375 1057.0699462890625 1055.52294921875 1057.39697265625 1064.2900390625 1071.5770263671875 1076.6190185546875 1080.822998046875 1083.5989990234375 1086.219970703125 1088.822998046875 1091.468994140625 1091.9300537109375 1094.7230224609375 1097.48095703125 1101.363037109375 1106.383056640625 1110.2740478515625 1115.2249755859375 1120.5419921875 1124.89501953125 1128.5340576171875 1130.4639892578125 1133.094970703125 1137.7239990234375 1145.6240234375 1145.5999755859375 1145.989013671875 1147.3480224609375 1147.833984375 1148.3170166015625 1148.33203125 1147.9520263671875 1146.5860595703125 1146.0780029296875 1145.06494140625 1144.14599609375 1143.073974609375 1140.8349609375 1140.2039794921875 1139.052978515625 1137.2030029296875 1135.050048828125 1133.1400146484375 1132.02197265625 1131.0140380859375 1128.031005859375 1125.9439697265625 1123.740966796875 1120.14794921875 1113.197021484375 1104.248046875 1095.2340087890625 1087.31396484375 1080.2259521484375 1074.406005859375 1069.3330078125 1065.300048828125 1062.7969970703125 1061.365966796875 1060.488037109375 1060.0860595703125 1062.343017578125 1065.4000244140625 1068.050048828125 1067.5419921875 1066.18603515625 1066.958984375 1068.906005859375 1071.740966796875
1566.79296875 1559.97705078125 1553.5849609375 1548.43896484375 1543.3570556640625 1537.823974609375 1530.3800048828125 1522.6839599609375 1515.947998046875 1508.1070556640625 1499.279052734375 1489.1929931640625 1479.488037109375 1470.06298828125 1460.39404296875 1449.4129638671875 1439.2779541015625 1431.39501953125 1423.6829833984375 1415.2239990234375 1407.39697265625 1400.6419677734375 1394.0780029296875 1388.9630126953125 1385.0360107421875 1380.29296875 1377.02294921875 1374.6719970703125 1373.47802734375 1372.593994140625 1370.89404296875 1369.0980224609375 1364.615966796875 1359.1839599609375 1354.262939453125 1348.4320068359375 1341.032958984375 1333.1519775390625 1325.06005859375 1317.4530029296875 1310.248046875 1303.989013671875 1296.656982421875 1291.333984375 1283.262939453125 1275.052001953125 1266.52001953125 1261.012939453125 1258.2900390625 1250.4969482421875 1240.75 1230.7330322265625 1221.4940185546875 1214.262939453125 1212.1920166015625 1213.5379638671875 1212.323974609375 1213.3199462890625 1216.6209716796875 1215.5040283203125 1215.947998046875 1215.1090087890625 1209.2440185546875 1208.81103515625 1210.072021484375 1213.5009765625 1216.7099609375 1215.1739501953125 1212.886962890625 1211.302001953125 1207.053955078125 1202.373046875 1197.31201171875 1193.7979736328125 1189.60205078125 1186.4110107421875 1180.9100341796875 1175.0570068359375 1169.0909423828125 1164.06201171875 1157.5260009765625 1151.3699951171875 1145.7979736328125 1139.9010009765625 1134.2550048828125 1128.7430419921875 1122.8370361328125 1116.83203125 1110.9300537109375 1104.6839599609375 1097.2449951171875 1089.824951171875 1078.094970703125 1072.5970458984375 1070.5679931640625 1062.490966796875 1057.5780029296875 1053.18896484375 1054.4119873046875 1055.031982421875 1052.864013671875 1053.7760009765625 1058.3380126953125 1065.427978515625 1070.77294921875 1075.7989501953125 1078.0770263671875 1080.5059814453125 1082.9580078125 1084.85595703125 1085.9090576171875 1091.0689697265625 1092.5909423828125 1097.197998046875 1101.3509521484375 1105.9410400390625 1110.6300048828125 1115.52099609375 1119.3780517578125 1122.7030029296875 1123.801025390625 1126.833984375 1131.0469970703125 1134.3360595703125 1136.3699951171875 1140.6939697265625 1143.4449462890625 1144.1319580078125 1143.89697265625 1143.9410400390625 1143.1739501953125 1141.31396484375 1140.8590087890625 1139.741943359375 1139.39599609375 1138.553955078125 1137.16796875 1135.4639892578125 1134.8499755859375 1133.2559814453125 1131.7440185546875 1129.470947265625 1128.8809814453125 1128.322021484375 1126.7860107421875 1123.81298828125 1121.073974609375 1119.3929443359375 1112.375 1104.5040283203125 1097.10400390625 1087.5780029296875 1079.989990234375 1074.14794921875 1069.595947265625 1065.2139892578125 1060.5379638671875 1057.489013671875 1055.10205078125 1056.053955078125 1056.6209716796875 1059.875 1063.239990234375 1064.4639892578125 1061.7860107421875 1061.655029296875 1063.093994140625 1066.35498046875
1569.1739501953125 1562.1820068359375 1555.7569580078125 1549.8389892578125 1544.1510009765625 1537.510009765625 1531.4229736328125 1523.3330078125 1515.7659912109375 1508.248046875 1499.844970703125 1490.9310302734375 1481.0469970703125 1469.6510009765625 1458.2679443359375 1447.1300048828125 1437.050048828125 1428.5880126953125 1420.802001953125 1413.7139892578125 1405.426025390625 1398.4580078125 1391.4029541015625 1384.97802734375 1379.7340087890625 1374.8919677734375 1371.02001953125 1367.9300537109375 1366.2080078125 1365.467041015625 1364.7860107421875 1363.803955078125 1363.531982421875 1359.4630126953125 1354.1729736328125 1349.4649658203125 1343.0989990234375 1336.0880126953125 1329.1199951171875 1321.51904296875 1314.8270263671875 1308.384033203125 1301.842041015625 1293.800048828125 1287.4639892578125 1277.0350341796875 1271.116943359375 1265.1309814453125 1262.7349853515625 1254.6429443359375 1246.217041015625 1236.552001953125 1226.2330322265625 1215.614990234375 1208.635009765625 1204.5909423828125 1204.470947265625 1206.2869873046875 1208.8260498046875 1208.25 1206.73095703125 1208.0009765625 1202.7650146484375 1200.4730224609375 1200.6419677734375 1205.39404296875 1208.823974609375 1207.208984375 1204.4580078125 1203.9410400390625 1202.26904296875 1198.998046875 1195.31396484375 1190.8499755859375 1187.4560546875 1184.1190185546875 1180.4959716796875 1175.27197265625 1169.7750244140625 1163.68701171875 1158.0040283203125 1152.126953125 1146.3909912109375 1140.60498046875 1134.8299560546875 1129.6719970703125 1123.47998046875 1117.14599609375 1111.35400390625 1105.114013671875 1097.66796875 1090.635009765625 1080.3189697265625 1072.5009765625 1069.6219482421875 1064.58203125 1057.198974609375 1053.41796875 1049.115966796875 1051.9000244140625 1050.321044921875 1050.3280029296875 1052.6610107421875 1058.7030029296875 1067.2779541015625 1070.60400390625 1073.3270263671875 1075.4560546875 1077.4029541015625 1078.2509765625 1082.4300537109375 1085.2989501953125 1089.8690185546875 1093.0770263671875 1095.3590087890625 1100.697998046875 1106.2120361328125 1111.1290283203125 1114.1929931640625 1116.0469970703125 1118.1300048828125 1121.06396484375 1125.23095703125 1127.697021484375 1130.626953125 1135.6180419921875 1139.4339599609375 1141.1590576171875 1140.8719482421875 1140.5789794921875 1139.1080322265625 1137 1135.64794921875 1134.333984375 1134.281005859375 1134.2330322265625 1133.7659912109375 1132.447998046875 1130.969970703125 1130.123046875 1128.85400390625 1127.5699462890625 1125.6829833984375 1125.6519775390625 1123.762939453125 1121.633056640625 1118.5369873046875 1115.6219482421875 1112.0179443359375 1104.8480224609375 1097.741943359375 1089.135009765625 1082.115966796875 1075.886962890625 1070.3680419921875 1066.06494140625 1062.3050537109375 1056.8699951171875 1052.4630126953125 1052.1710205078125 1051.322021484375 1053.800048828125 1057.4840087890625 1059.4000244140625 1058.5240478515625 1057.261962890625 1059.9630126953125 1062.217041015625
1568.4539794921875 1561.5830078125 1554.9510498046875 1548.1650390625 1541.3680419921875 1535.39697265625 1528.2919921875 1521.155029296875 1513.969970703125 1506.4150390625 1498.31005859375 1489.741943359375 1480.5970458984375 1467.866943359375 1452.916015625 1443.8599853515625 1434.3370361328125 1426.612060546875 1419.532958984375 1411.6510009765625 1404.095947265625 1395.75 1389.3699951171875 1382.9320068359375 1376.759033203125 1370.8050537109375 1365.6009521484375 1361.52001953125 1359.5880126953125 1358.3089599609375 1357.1639404296875 1356.5400390625 1356.633056640625 1356.3570556640625 1352.998046875 1348.77001953125 1343.0240478515625 1337.6519775390625 1332.0830078125 1325.2850341796875 1318.7960205078125 1312.48095703125 1305.31005859375 1297.865966796875 1290.2550048828125 1283.843994140625 1276.7239990234375 1271.072998046875 1266.5169677734375 1257.85205078125 1248.5419921875 1239.904052734375 1229.904052734375 1219.5169677734375 1210.8890380859375 1202.470947265625 1197.404052734375 1197.04296875 1198.5059814453125 1199.8890380859375 1199.1639404296875 1199.4329833984375 1197.7769775390625 1191.487060546875 1193.3280029296875 1195.197021484375 1197.7850341796875 1195.3909912109375 1194 1194.5040283203125 1195.1109619140625 1194.1729736328125 1191.9090576171875 1188.748046875 1184.550048828125 1181.0059814453125 1178.4549560546875 1175.5379638671875 1169.5880126953125 1163.948974609375 1157.968017578125 1152.0789794921875 1146.4320068359375 1140.615966796875 1135.6689453125 1130.1190185546875 1124.135986328125 1118.3170166015625 1112.1739501953125 1106.260009765625 1100.3380126953125 1094.240966796875 1086.383056640625 1072.345947265625 1068.3310546875 1063.948974609375 1057.3360595703125 1052.073974609375 1046.8360595703125 1047.43798828125 1048.3089599609375 1047.260986328125 1048.68505859375 1055.333984375 1064.498046875 1066.010009765625 1068.072021484375 1070.126953125 1072.10400390625 1072.89697265625 1077.5860595703125 1081.362060546875 1085.2509765625 1087.9959716796875 1092.9749755859375 1095.1400146484375 1101.241943359375 1105.73095703125 1108.2120361328125 1109.5009765625 1111.968017578125 1116.1300048828125 1119.1629638671875 1121.56201171875 1125.676025390625 1130.719970703125 1134.968017578125 1138.030029296875 1137.9239501953125 1136.9439697265625 1135.5260009765625 1133.876953125 1131.4000244140625 1130.761962890625 1130.0260009765625 1129.5989990234375 1129.27001953125 1128.7159423828125 1127.927978515625 1127.02099609375 1125.4410400390625 1124.259033203125 1123.3900146484375 1121.9000244140625 1120.708984375 1119.2889404296875 1116.5169677734375 1112.136962890625 1109.0999755859375 1105.333984375 1098.85498046875 1092.2569580078125 1085.156005859375 1079.0159912109375 1074.552001953125 1071.7099609375 1069.7359619140625 1063.989990234375 1056.719970703125 1050.0379638671875 1047.1600341796875 1048.3050537109375 1051.52001953125 1054.2020263671875 1054.637939453125 1052.552978515625 1055.447021484375 1058.7149658203125
1565.862060546875 1559.656982421875 1552.739013671875 1545.760009765625 1538.5439453125 1532.2010498046875 1525.2030029296875 1518.469970703125 1511.5059814453125 1503.81298828125 1496.3199462890625 1487.7989501953125 1477.574951171875 1463.8780517578125 1450.2669677734375 1441.3070068359375 1433.3890380859375 1425.4649658203125 1417.510986328125 1409.751953125 1402.3570556640625 1394.6080322265625 1387.009033203125 1380.738037109375 1374.7159423828125 1368.35302734375 1362.5970458984375 1356.9560546875 1353.262939453125 1351.531982421875 1349.64599609375 1348.719970703125 1348.8179931640625 1349.2989501953125 1348.4100341796875 1346.0789794921875 1341.344970703125 1336.4139404296875 1331.448974609375 1325.4749755859375 1320.0679931640625 1312.93798828125 1307.467041015625 1300.1949462890625 1292.2330322265625 1287.7900390625 1281.7230224609375 1276.43798828125 1269.998046875 1260.8919677734375 1250.364990234375 1241.2080078125 1231.5579833984375 1222.5970458984375 1214.303955078125 1204.31298828125 1196.39599609375 1190.7679443359375 1188.947998046875 1191.988037109375 1187.7099609375 1188.802978515625 1185.81103515625 1182.64404296875 1183.8719482421875 1184.6669921875 1186.3699951171875 1185.77099609375 1184.416015625 1185.050048828125 1186.77099609375 1187.0140380859375 1186.4520263671875 1184.9239501953125 1181.4849853515625 1178.363037109375 1174.553955078125 1173.0909423828125 1170.3480224609375 1165.0350341796875 1158.698974609375 1153.6510009765625 1148.656005859375 1142.7840576171875 1137.635986328125 1132.748046875 1126.8509521484375 1120.7349853515625 1114.7979736328125 1109.0660400390625 1102.5870361328125 1096.405029296875 1090.469970703125 1073.595947265625 1068.31201171875 1063.375 1057.43798828125 1050.072998046875 1046.093017578125 1044.64697265625 1046.2449951171875 1044.8330078125 1045.4949951171875 1050.762939453125 1057.7259521484375 1060.3380126953125 1062.239013671875 1064.9720458984375 1067.5279541015625 1069.512939453125 1072.1209716796875 1077.0450439453125 1079.261962890625 1082.614013671875 1085.8919677734375 1091.8380126953125 1095.4739990234375 1099.7320556640625 1101.5269775390625 1102.468017578125 1106.1800537109375 1110.501953125 1112.759033203125 1116.8270263671875 1121.489013671875 1125.876953125 1130.4599609375 1134.0989990234375 1134.3070068359375 1133.3299560546875 1132.1619873046875 1130.18896484375 1128.074951171875 1126.7879638671875 1126.4329833984375 1125.093017578125 1125.0689697265625 1125.760986328125 1125.4189453125 1124.3909912109375 1123.405029296875 1121.614990234375 1121.2430419921875 1119.1949462890625 1117.8310546875 1116.0799560546875 1114.759033203125 1110.8270263671875 1105.9959716796875 1103.6510009765625 1100.926025390625 1094.64697265625 1089.2540283203125 1083.719970703125 1080.7740478515625 1079.0889892578125 1074.5350341796875 1067.593017578125 1059.25 1051.6529541015625 1045.593017578125 1043.781005859375 1045.5770263671875 1047.998046875 1049.262939453125 1048.9129638671875 1051.946044921875 1055.01904296875
1561.2449951171875 1555.8990478515625 1550.447998046875 1543.748046875 1536.218017578125 1529.217041015625 1523.23095703125 1516.365966796875 1508.97998046875 1501.426025390625 1493.89599609375 1485.675048828125 1474.553955078125 1462.18603515625 1448.2669677734375 1438.948974609375 1431.5269775390625 1423.613037109375 1416.2939453125 1408.5780029296875 1401.074951171875 1393.2149658203125 1385.323974609375 1378.8709716796875 1372.14794921875 1365.9639892578125 1359.8590087890625 1354.458984375 1348.782958984375 1344.9239501953125 1342.969970703125 1341.47998046875 1341.1689453125 1341.2149658203125 1341.0789794921875 1340.4019775390625 1337.81396484375 1333.68603515625 1328.218017578125 1322.98095703125 1317.4090576171875 1311.208984375 1305.10595703125 1299.530029296875 1293.800048828125 1289.282958984375 1282.6610107421875 1277.0469970703125 1271.4219970703125 1264.3280029296875 1253.70703125 1244.3179931640625 1232.2669677734375 1223.1929931640625 1214.8699951171875 1205.1300048828125 1195.6619873046875 1189.1419677734375 1184.2760009765625 1182.4620361328125 1181.3740234375 1177.02294921875 1175.842041015625 1174.9019775390625 1175.2760009765625 1174.968994140625 1176.02197265625 1176.4830322265625 1176.2559814453125 1176.3499755859375 1178.637939453125 1179.509033203125 1180.4620361328125 1179.7900390625 1177.06201171875 1174.946044921875 1171.4659423828125 1168.4329833984375 1168.154052734375 1166.6619873046875 1162.4759521484375 1156.904052734375 1151.81494140625 1145.9969482421875 1139.8900146484375 1134.1939697265625 1128.239990234375 1122.219970703125 1116.1199951171875 1109.2469482421875 1103.0999755859375 1096.7559814453125 1089.739990234375 1077.199951171875 1067.9659423828125 1062.6650390625 1058.06201171875 1049.8280029296875 1045.72802734375 1041.0159912109375 1041.1949462890625 1042.9849853515625 1042.0589599609375 1044.008056640625 1049.56005859375 1053.6070556640625 1055.927978515625 1060.3929443359375 1062.208984375 1064.6190185546875 1068.1929931640625 1071.0439453125 1073.842041015625 1076.4659423828125 1080.1190185546875 1086.012939453125 1090.3070068359375 1094.3409423828125 1096.5889892578125 1098.3179931640625 1100.47998046875 1102.68603515625 1107.1280517578125 1112.60400390625 1116.77099609375 1120.9189453125 1124.7330322265625 1128.125 1130.031982421875 1129.93994140625 1128.5560302734375 1126.8079833984375 1124.7230224609375 1123.885986328125 1123.0899658203125 1122.968017578125 1123.0159912109375 1123.0899658203125 1122.81494140625 1122.6409912109375 1121.0780029296875 1119.4530029296875 1119.3800048828125 1117.0810546875 1115.1610107421875 1113.010009765625 1111.7550048828125 1108.51904296875 1104.1319580078125 1099.22900390625 1098.7139892578125 1096.2259521484375 1091.6309814453125 1086.7919921875 1082.6490478515625 1079.5069580078125 1075.3480224609375 1069.780029296875 1062.5 1055.0760498046875 1047.48095703125 1042.2239990234375 1040.7340087890625 1042.8079833984375 1045.0069580078125 1045.489990234375 1048.093017578125 1050.93701171875
1556.3599853515625 1550.8570556640625 1546.0030517578125 1540.08203125 1533.696044921875 1527.10400390625 1521.54296875 1514.9449462890625 1506.1689453125 1498.333984375 1490.8289794921875 1482.197998046875 1469.363037109375 1458.9210205078125 1449.5810546875 1438.4599609375 1429.3499755859375 1421.322998046875 1414.08203125 1407.29296875 1399.81494140625 1392.0400390625 1384.220947265625 1376.9339599609375 1370.697998046875 1364.22705078125 1357.9320068359375 1351.8270263671875 1345.5 1339.7449951171875 1336.572998046875 1334.655029296875 1333.5159912109375 1332.9849853515625 1333.4169921875 1332.5899658203125 1331.5989990234375 1328.4940185546875 1325.1240234375 1319.2259521484375 1313.4189453125 1308.303955078125 1302.6610107421875 1297.10400390625 1292.5419921875 1286.9599609375 1280.6629638671875 1275.073974609375 1270.0040283203125 1263.126953125 1252.407958984375 1242.68701171875 1232.862060546875 1223.925048828125 1214.8609619140625 1204.656982421875 1195.2030029296875 1187.8819580078125 1182.6629638671875 1178.6729736328125 1176.4090576171875 1173.677978515625 1168.7850341796875 1167.43896484375 1167.39697265625 1167.3179931640625 1167.137939453125 1167.68798828125 1167.5780029296875 1168.2919921875 1170.156005859375 1171.6800537109375 1173.7509765625 1172.739990234375 1171.156005859375 1169.2359619140625 1167.947021484375 1164.259033203125 1162.7860107421875 1163.27099609375 1162.3990478515625 1157.718994140625 1151.81005859375 1146.3389892578125 1139.1710205078125 1133.657958984375 1127.5340576171875 1121.85205078125 1116.2659912109375 1110.0699462890625 1103.740966796875 1097.115966796875 1090.116943359375 1082.9610595703125 1070.06005859375 1063.387939453125 1057.137939453125 1052.541015625 1044.8480224609375 1038.85498046875 1038.9029541015625 1040.053955078125 1039.9840087890625 1040.6610107421875 1042.3809814453125 1042.9759521484375 1049.967041015625 1055.06103515625 1057.60498046875 1060.199951171875 1062.9620361328125 1066.032958984375 1068.2919921875 1070.2030029296875 1076.0560302734375 1080.6240234375 1083.9620361328125 1087.0989990234375 1089.2969970703125 1091.635986328125 1095.1610107421875 1098.5400390625 1103.2860107421875 1106.4200439453125 1111.4110107421875 1115.7359619140625 1118.8699951171875 1121.5140380859375 1123.6729736328125 1124.8489990234375 1124.5350341796875 1122.657958984375 1121.2989501953125 1120.06201171875 1118.990966796875 1119.9000244140625 1120.947021484375 1121.802001953125 1121.719970703125 1121.2869873046875 1120.9720458984375 1118.3819580078125 1117.2869873046875 1115.77294921875 1113.3699951171875 1111.1259765625 1109.1820068359375 1104.990966796875 1102.135009765625 1096.8719482421875 1093.906982421875 1092.64697265625 1089.22900390625 1084.7550048828125 1080.3590087890625 1077.322998046875 1076.0849609375 1072.0780029296875 1065.3280029296875 1058.4830322265625 1050.8480224609375 1043.4139404296875 1039.1669921875 1037.8819580078125 1040.66796875 1042.3349609375 1043.9649658203125 1045.947021484375
1550.9029541015625 1544.9759521484375 1540.2969970703125 1534.8900146484375 1529.43896484375 1524.3199462890625 1518.469970703125 1512.6719970703125 1503.95703125 1495.27099609375 1487.2640380859375 1479.0849609375 1468.9119873046875 1455.4239501953125 1446.0250244140625 1437.14404296875 1428.5150146484375 1420.4949951171875 1412.219970703125 1405.177001953125 1397.1810302734375 1389.7760009765625 1382.4620361328125 1374.946044921875 1368.9090576171875 1362.083984375 1356.240966796875 1349.531982421875 1343.0789794921875 1337.136962890625 1332.3480224609375 1328.3900146484375 1326.4599609375 1325.7099609375 1325.5350341796875 1325.02099609375 1323.906005859375 1321.1800537109375 1319.166015625 1316.2220458984375 1310.60205078125 1304.6490478515625 1300.1080322265625 1295.02197265625 1288.7860107421875 1284.5660400390625 1277.844970703125 1272.571044921875 1266.8990478515625 1259.5419921875 1249.2440185546875 1239.7659912109375 1231.0789794921875 1222.43798828125 1213.4339599609375 1204.2099609375 1195.4520263671875 1188.2080078125 1181.9739990234375 1176.8179931640625 1172.83203125 1171.0250244140625 1166.6180419921875 1162.4420166015625 1159.2349853515625 1160.083984375 1160.1409912109375 1160.5360107421875 1159.8330078125 1160.52099609375 1162.4169921875 1164.491943359375 1166.385986328125 1166.52001953125 1164.4759521484375 1163.012939453125 1162.5389404296875 1160.947998046875 1157.345947265625 1157.3919677734375 1157.7359619140625 1154.5169677734375 1149.7840576171875 1144.4119873046875 1137.529052734375 1132.0469970703125 1126.010009765625 1120.5699462890625 1115.116943359375 1109.626953125 1103.4449462890625 1097.1669921875 1091.0069580078125 1084.0810546875 1077.56201171875 1065.27197265625 1057.4090576171875 1051.5419921875 1046.758056640625 1039.1300048828125 1035.032958984375 1037.06494140625 1036.862060546875 1037.7659912109375 1037.9959716796875 1038.844970703125 1046.116943359375 1050.2769775390625 1050.593017578125 1055.1259765625 1056.3909912109375 1060.3330078125 1060.758056640625 1066.72802734375 1070.875 1074.448974609375 1078.10595703125 1081.27001953125 1083.781982421875 1085.06494140625 1088.9949951171875 1093.4560546875 1098.468017578125 1103.3409423828125 1106.2159423828125 1109.885009765625 1112.876953125 1115.4599609375 1117.47705078125 1118.72705078125 1118.22900390625 1116.968994140625 1116.4930419921875 1115.54296875 1114.9429931640625 1116.4100341796875 1119.1070556640625 1120.10595703125 1119.9849853515625 1119.968994140625 1120.0989990234375 1116.833984375 1115.33203125 1114.7159423828125 1111.9580078125 1111.238037109375 1107.2879638671875 1103.9649658203125 1099.64404296875 1094.884033203125 1090.0350341796875 1088.583984375 1085.988037109375 1081.7540283203125 1077.93994140625 1074.81005859375 1073.4339599609375 1070.300048828125 1064.7130126953125 1058.6429443359375 1052.904052734375 1045.7259521484375 1038.4720458984375 1035.6500244140625 1036.155029296875 1039.1219482421875 1039.1519775390625 1039.6839599609375
1546.60595703125 1539.9029541015625 1534.06494140625 1528.9560546875 1524.2220458984375 1519.864013671875 1514.72998046875 1509.2939453125 1501.2900390625 1493.197998046875 1483.8780517578125 1476.1590576171875 1467.9000244140625 1455.5369873046875 1443.719970703125 1434.64599609375 1426.9580078125 1419.760986328125 1411.39501953125 1404.1710205078125 1395.7330322265625 1387.9739990234375 1379.93505859375 1373.324951171875 1366.719970703125 1360.60205078125 1354.18994140625 1347.3499755859375 1340.6290283203125 1334.573974609375 1328.926025390625 1324.4959716796875 1320.4859619140625 1318.4859619140625 1318.2359619140625 1317.7650146484375 1316.3909912109375 1314.1099853515625 1312.9229736328125 1311.7509765625 1308.197998046875 1303.1820068359375 1297.947998046875 1292.9200439453125 1287.321044921875 1280.9530029296875 1276.1400146484375 1270.7669677734375 1264.3929443359375 1256.4510498046875 1246.68603515625 1237.27001953125 1230.0560302734375 1223.958984375 1215.6810302734375 1207.260009765625 1199.2149658203125 1189.3409423828125 1181.3310546875 1174.404052734375 1171.2230224609375 1166.7110595703125 1165.218994140625 1159.6929931640625 1155.6839599609375 1152.844970703125 1153.0389404296875 1152.739013671875 1152.3759765625 1152.9420166015625 1154.844970703125 1156.93896484375 1158.5770263671875 1158.6209716796875 1157.573974609375 1156.6739501953125 1156.677001953125 1156.384033203125 1152.9830322265625 1151.8409423828125 1152.114990234375 1150.02294921875 1146.552978515625 1141.239013671875 1135.906005859375 1130.1090087890625 1124.677001953125 1119.446044921875 1114.0169677734375 1108.10400390625 1101.7979736328125 1095.68896484375 1089.3599853515625 1082.9439697265625 1077.02294921875 1066.010009765625 1057.6510009765625 1050.7120361328125 1045.9339599609375 1038.20703125 1031.052001953125 1033.5240478515625 1034.2740478515625 1035.1390380859375 1035.2769775390625 1035.5909423828125 1040.781982421875 1044.4530029296875 1045.27001953125 1048.35595703125 1052.008056640625 1053.425048828125 1057.18896484375 1061.9730224609375 1065.135986328125 1068.3380126953125 1072.14501953125 1075.3160400390625 1077.3929443359375 1077.8179931640625 1084.52294921875 1089.0400390625 1092.7259521484375 1097.9859619140625 1102.083984375 1105.6839599609375 1108.56298828125 1110.1419677734375 1111.5849609375 1113.06396484375 1113.7650146484375 1112.7010498046875 1111.5150146484375 1110.387939453125 1109.114013671875 1112.43896484375 1116.39404296875 1117.487060546875 1117.7099609375 1116.593994140625 1116.3719482421875 1115.1429443359375 1113.6070556640625 1112.9759521484375 1111.1240234375 1107.14501953125 1105.9339599609375 1102.2889404296875 1097.81494140625 1093.2530517578125 1088.468017578125 1084.14599609375 1081.9019775390625 1078.6199951171875 1074.946044921875 1072.8079833984375 1071.262939453125 1067.4849853515625 1062.490966796875 1056.04296875 1050.916015625 1045.8919677734375 1038.8349609375 1033.4110107421875 1032.9830322265625 1033.488037109375 1035.3580322265625 1034.8929443359375
1547.009033203125 1538.175048828125 1530.3399658203125 1523.58203125 1518.9310302734375 1513.967041015625 1509.7530517578125 1504.0369873046875 1496.553955078125 1489.7530517578125 1480.822998046875 1472.7540283203125 1464.4010009765625 1453.197998046875 1440.9749755859375 1432.3719482421875 1424.6510009765625 1417.5670166015625 1410.35205078125 1403 1394.6009521484375 1387.166015625 1379.281982421875 1371.0689697265625 1364.89697265625 1358.4229736328125 1352.198974609375 1345.1300048828125 1338.446044921875 1332.1240234375 1326.8079833984375 1321.0880126953125 1316.4659423828125 1312.7440185546875 1311.427978515625 1310.4560546875 1309.7530517578125 1307.5369873046875 1305.8349609375 1304.948974609375 1303.76904296875 1301.321044921875 1296.324951171875 1291.14697265625 1285.4169921875 1279.2840576171875 1273.1729736328125 1267.9420166015625 1261.5489501953125 1254.6300048828125 1249.14501953125 1243.0479736328125 1238.0830078125 1230.051025390625 1220.6190185546875 1210.68701171875 1203.5899658203125 1192.9849853515625 1184.550048828125 1176.1510009765625 1168.1319580078125 1165.2669677734375 1160.676025390625 1158.5069580078125 1153.4580078125 1149.3170166015625 1145.9859619140625 1144.758056640625 1145.6259765625 1145.89697265625 1146.697998046875 1148.9539794921875 1150.1820068359375 1150.4539794921875 1149.5970458984375 1150.02294921875 1151.02099609375 1151.469970703125 1148.781982421875 1145.759033203125 1146.2550048828125 1145.468994140625 1141.8680419921875 1138.22802734375 1134.198974609375 1129.4010009765625 1124.2030029296875 1119.428955078125 1113.9119873046875 1107.5419921875 1101.0970458984375 1094.5479736328125 1088.279052734375 1081.0419921875 1074.14794921875 1065.7850341796875 1058.884033203125 1051.3580322265625 1044.322998046875 1035.7490234375 1029.8680419921875 1030.0679931640625 1031.6829833984375 1032.1109619140625 1033.2969970703125 1033.43701171875 1036.1719970703125 1038.987060546875 1040.6240234375 1042.9969482421875 1046.89794921875 1048.5260009765625 1053.302978515625 1056.2669677734375 1059.498046875 1063.7979736328125 1067.279052734375 1069.7769775390625 1071.5179443359375 1074.2060546875 1078.155029296875 1082.8079833984375 1089.0460205078125 1092.780029296875 1095.81201171875 1098.3800048828125 1100.864990234375 1103.43701171875 1105.366943359375 1106.4580078125 1107.114013671875 1107.39404296875 1106.823974609375 1105.4420166015625 1103.991943359375 1107.8349609375 1111.9090576171875 1112.85498046875 1110.9420166015625 1112.2149658203125 1112.113037109375 1111.3079833984375 1111.0150146484375 1110.56298828125 1105.614990234375 1104.948974609375 1104.166015625 1101.178955078125 1096.93994140625 1092.1939697265625 1087.031005859375 1082.781005859375 1077.7469482421875 1075.676025390625 1072.969970703125 1070.698974609375 1068.89404296875 1065.010986328125 1059.93603515625 1053.9339599609375 1048.9229736328125 1044.43701171875 1038.6949462890625 1030.8470458984375 1029.8480224609375 1030.8800048828125 1031.9859619140625 1030.833984375
1546.4339599609375 1538.0179443359375 1529.8360595703125 1521.8409423828125 1513.8409423828125 1508.241943359375 1503.843994140625 1498.3160400390625 1491.4010009765625 1484.1600341796875 1476.7349853515625 1468.708984375 1460.4320068359375 1448.699951171875 1437.7760009765625 1430.487060546875 1422.4730224609375 1415.39501953125 1408.3070068359375 1401.9189453125 1393.72998046875 1385.4410400390625 1378.365966796875 1370.9739990234375 1363.0899658203125 1356.3070068359375 1350.177978515625 1343.2989501953125 1336.717041015625 1330.2640380859375 1324.43505859375 1318.498046875 1314.1610107421875 1309.3079833984375 1305.427978515625 1304.2860107421875 1302.7919921875 1300.9849853515625 1298.9730224609375 1297.4189453125 1296.363037109375 1295.759033203125 1294.281982421875 1288.68994140625 1282.2860107421875 1275.4169921875 1268.7879638671875 1260.81494140625 1253.949951171875 1247.8270263671875 1243.3819580078125 1243.1090087890625 1242.261962890625 1235.7149658203125 1226.60498046875 1215.2640380859375 1205.051025390625 1196.5550537109375 1187.35498046875 1178.5469970703125 1169.9219970703125 1161.614990234375 1158.925048828125 1154.9439697265625 1152.032958984375 1147.3330078125 1143.4620361328125 1139.93798828125 1138.363037109375 1139.407958984375 1138.748046875 1140.6729736328125 1141.9530029296875 1142.27197265625 1141.323974609375 1142.2139892578125 1143.5360107421875 1144.9580078125 1144.3299560546875 1141.6700439453125 1140.85205078125 1140.8370361328125 1137.405029296875 1134.9029541015625 1132.10498046875 1128.279052734375 1123.199951171875 1118.113037109375 1113.510986328125 1107.302978515625 1101.0889892578125 1095.1739501953125 1087.9239501953125 1081.3590087890625 1074.01904296875 1065.72705078125 1059.126953125 1051.9219970703125 1045.052978515625 1038.47802734375 1029.31103515625 1026.4720458984375 1028.9940185546875 1029.0369873046875 1030.4229736328125 1031.16796875 1031.677978515625 1035.115966796875 1036.0009765625 1038.218017578125 1042.2960205078125 1045.72998046875 1049.2320556640625 1052.739013671875 1056.904052734375 1060.073974609375 1062.2440185546875 1064.0350341796875 1064.2950439453125 1068.833984375 1075.365966796875 1080.64599609375 1084.5560302734375 1087.1619873046875 1089.2490234375 1091.81005859375 1094.9420166015625 1097.7320556640625 1099.281005859375 1100.6510009765625 1101.386962890625 1101.947998046875 1102.406982421875 1101.5880126953125 1100.3060302734375 1103.3790283203125 1106.5699462890625 1107.68701171875 1107.9439697265625 1108.2120361328125 1107.862060546875 1106.7540283203125 1104.636962890625 1106.4129638671875 1103.072998046875 1103.072998046875 1102.52294921875 1099.3289794921875 1095.48095703125 1090.81103515625 1085.741943359375 1081.262939453125 1076.06005859375 1071.4510498046875 1069.3690185546875 1068.698974609375 1067.5159912109375 1065.5889892578125 1060.3580322265625 1054.0159912109375 1048.759033203125 1043.2679443359375 1037.1619873046875 1029.72998046875 1027.31396484375 1029.39501953125 1026.218017578125 1028.406982421875
1545.9599609375 1538.3990478515625 1529.7740478515625 1521.720947265625 1513.5389404296875 1506.011962890625 1499.113037109375 1492.9639892578125 1486.123046875 1477.5350341796875 1469.678955078125 1462.56201171875 1455.386962890625 1444.989990234375 1436.237060546875 1427.9659423828125 1420.968994140625 1413.801025390625 1405.865966796875 1398.31298828125 1390.73095703125 1383.4859619140625 1377.10595703125 1370.241943359375 1362.64794921875 1356.623046875 1349.76904296875 1342.9969482421875 1335.8070068359375 1329.154052734375 1322.8370361328125 1317.626953125 1312.10400390625 1306.7340087890625 1302.676025390625 1298.7769775390625 1296.760986328125 1294.0059814453125 1291.9139404296875 1290.3929443359375 1288.7650146484375 1288.0679931640625 1287.862060546875 1284.333984375 1280.137939453125 1271.446044921875 1263.208984375 1254.958984375 1247.531982421875 1240.623046875 1235.56201171875 1234.927001953125 1234.8050537109375 1234.239990234375 1227.781982421875 1218.0069580078125 1209.385009765625 1198.593994140625 1188.864990234375 1180.29296875 1171.7080078125 1161.9219970703125 1157.47900390625 1152.126953125 1149.1209716796875 1146.0570068359375 1141.2509765625 1137.3310546875 1134.112060546875 1131.9739990234375 1131.803955078125 1132.6290283203125 1133.56005859375 1133.93505859375 1133.22802734375 1134.760009765625 1136.071044921875 1137.260009765625 1138.572021484375 1136.634033203125 1133.7650146484375 1135.572021484375 1132.47705078125 1130.824951171875 1129.0980224609375 1126.2080078125 1121.7969970703125 1116.9310302734375 1112.75 1107.178955078125 1100.9539794921875 1095.41796875 1088.697998046875 1082.865966796875 1075.7989501953125 1068.29296875 1062.698974609375 1055.5419921875 1048.3089599609375 1038.2550048828125 1029.593994140625 1023.4439697265625 1026.760009765625 1025.43701171875 1027.531005859375 1028.60498046875 1028.802978515625 1029.446044921875 1031.614990234375 1034.2779541015625 1038.6080322265625 1041.323974609375 1045.3360595703125 1048.8470458984375 1052.4339599609375 1055.1820068359375 1056.362060546875 1058.447021484375 1061.4940185546875 1067.126953125 1072.2659912109375 1075.9859619140625 1078.2099609375 1079.4129638671875 1082.718994140625 1086.45703125 1089.4730224609375 1091.89697265625 1093.8489990234375 1095.02197265625 1095.68896484375 1097.2469482421875 1097.635986328125 1097.9599609375 1095.217041015625 1098.008056640625 1100.6729736328125 1101.241943359375 1101.5169677734375 1102.5069580078125 1102.7939453125 1102.18701171875 1100.5 1099.5999755859375 1101.14697265625 1101.8909912109375 1099.43603515625 1096.8070068359375 1094.239990234375 1090.27099609375 1084.626953125 1080.175048828125 1074.9630126953125 1070.43994140625 1065.9949951171875 1063.885009765625 1064.0770263671875 1062.873046875 1059.3809814453125 1054.18701171875 1048.4420166015625 1042.279052734375 1034.93603515625 1027.5799560546875 1024.10400390625 1024.68505859375 1025.31103515625 1022.7689819335937
1544.1639404296875 1536.864013671875 1529.1500244140625 1520.447998046875 1512.4840087890625 1504.862060546875 1497.6610107421875 1491.08203125 1482.404052734375 1472.946044921875 1465.2769775390625 1458.2130126953125 1450.4749755859375 1442.4189453125 1434.4229736328125 1426.6190185546875 1418.7149658203125 1411.0009765625 1403.3819580078125 1395.89501953125 1388.02001953125 1382 1375.27197265625 1368.989013671875 1362.3599853515625 1355.949951171875 1348.9520263671875 1343.0050048828125 1336.3709716796875 1329.9329833984375 1323.0780029296875 1316.7979736328125 1310.72900390625 1305.196044921875 1300.93994140625 1296.5379638671875 1292.1669921875 1288.031982421875 1285.8280029296875 1283.9859619140625 1282.428955078125 1281.3809814453125 1282.0589599609375 1278.2340087890625 1273.593994140625 1267.9439697265625 1259.364990234375 1251.051025390625 1242.5989990234375 1235.1929931640625 1228.4620361328125 1224.7010498046875 1225.4090576171875 1224.7569580078125 1215.720947265625 1209.0970458984375 1203.6309814453125 1198.4849853515625 1191.7740478515625 1182.3680419921875 1174.0849609375 1165.85498046875 1156.958984375 1149.6409912109375 1146.4000244140625 1143.501953125 1140.77197265625 1135.5379638671875 1131.623046875 1128.06494140625 1125.1610107421875 1125.7779541015625 1125.634033203125 1125.9930419921875 1125.177978515625 1126.2640380859375 1127.2979736328125 1129.656005859375 1131.18994140625 1130.9530029296875 1126.60205078125 1128.5159912109375 1126.375 1125.3370361328125 1125.613037109375 1123.1080322265625 1120.1810302734375 1115.4139404296875 1110.2440185546875 1106.1199951171875 1100.7760009765625 1095.2340087890625 1089.323974609375 1083.4449462890625 1076.928955078125 1070.011962890625 1064.259033203125 1057.2039794921875 1048.68603515625 1037.8389892578125 1029.633056640625 1020.5640258789062 1023.6619873046875 1022.208984375 1024.7540283203125 1025.7559814453125 1026.2760009765625 1026.31396484375 1027.8919677734375 1030.157958984375 1033.1300048828125 1037.177978515625 1041.4300537109375 1044.4019775390625 1048.197021484375 1050.4830322265625 1051.3599853515625 1051.5999755859375 1058.032958984375 1062.470947265625 1067.5880126953125 1070.85595703125 1069.1800537109375 1070.3800048828125 1076.530029296875 1082.22705078125 1084.68896484375 1086.1510009765625 1088.1910400390625 1089.470947265625 1090.93701171875 1093.6910400390625 1093.5009765625 1094.0439453125 1092.7900390625 1092.6290283203125 1094.6290283203125 1095.3699951171875 1095.85595703125 1096.7840576171875 1098.4219970703125 1098.93701171875 1099.258056640625 1099.26904296875 1099.373046875 1098.2139892578125 1097.0460205078125 1094.56201171875 1091.2760009765625 1088.573974609375 1082.092041015625 1077.532958984375 1074.7139892578125 1069.4849853515625 1064.678955078125 1060.1619873046875 1058.5889892578125 1057.0150146484375 1054.6419677734375 1051.302978515625 1047.823974609375 1041.4730224609375 1034.7850341796875 1028.52294921875 1022.385009765625 1020.9119873046875 1020.4530029296875 1020.9310302734375
1540.751953125 1534.3360595703125 1527.427001953125 1519.4630126953125 1511.02294921875 1503.5760498046875 1495.8590087890625 1489.3280029296875 1482.7330322265625 1472.489990234375 1463.2440185546875 1455.322021484375 1447.27099609375 1439.6939697265625 1432.4090576171875 1424.572998046875 1417.365966796875 1409.85205078125 1402.2459716796875 1395.074951171875 1387.676025390625 1381.4990234375 1374.718017578125 1368.2559814453125 1361.4000244140625 1354.9859619140625 1348.625 1342.2840576171875 1335.7869873046875 1329.7490234375 1323.6080322265625 1316.9959716796875 1311 1305.2099609375 1299.56103515625 1294.9150390625 1289.9739990234375 1285.344970703125 1280.2490234375 1278.7550048828125 1277.2049560546875 1275.696044921875 1273.7149658203125 1270.5150146484375 1266.3719482421875 1261.39501953125 1256.72705078125 1248.116943359375 1239.241943359375 1231.677001953125 1224.2149658203125 1217.7039794921875 1214.197021484375 1210.6519775390625 1206.177978515625 1201.406982421875 1196.6829833984375 1191.93505859375 1187.864990234375 1184.0269775390625 1175.4639892578125 1167.010009765625 1156.470947265625 1150.177978515625 1143.56298828125 1141.1429443359375 1138.177978515625 1134.64599609375 1129.8790283203125 1126.14501953125 1122.2249755859375 1119.0789794921875 1117.6829833984375 1117.508056640625 1116.7879638671875 1117.8089599609375 1119.2130126953125 1121.154052734375 1123.27099609375 1124.552001953125 1119.6510009765625 1122.5699462890625 1120.8900146484375 1118.9840087890625 1120.4520263671875 1120.498046875 1118.416015625 1114.41796875 1109.4580078125 1104.574951171875 1099.241943359375 1093.883056640625 1088.4219970703125 1082.81005859375 1076.426025390625 1070.43701171875 1063.862060546875 1057.677001953125 1047.4930419921875 1037.303955078125 1027.800048828125 1019.3829956054687 1020.5449829101562 1019.0889892578125 1021.6959838867187 1022.9730224609375 1023.7230224609375 1023.8839721679687 1023.9550170898437 1025.3349609375 1027.9100341796875 1032.9019775390625 1036.8790283203125 1040.510986328125 1044.092041015625 1044.8280029296875 1046.4029541015625 1047.968994140625 1053.552001953125 1058.510009765625 1063.06298828125 1064.52001953125 1060.376953125 1066.43505859375 1073.251953125 1078.001953125 1080.6070556640625 1081.583984375 1083.125 1084.8060302734375 1087.2919921875 1089.6409912109375 1089.4560546875 1089.387939453125 1088.6820068359375 1088.498046875 1089.7540283203125 1089.863037109375 1090.387939453125 1091.551025390625 1093.27001953125 1095.6920166015625 1097.3680419921875 1098.719970703125 1095.6180419921875 1093.3360595703125 1092.0999755859375 1090.322021484375 1088.2960205078125 1086.762939453125 1082.052978515625 1077.6009521484375 1074.06494140625 1069.197021484375 1065.02099609375 1060.2030029296875 1055.3680419921875 1051.5909423828125 1049.6650390625 1046.666015625 1043.989013671875 1040.593994140625 1035.949951171875 1031.177978515625 1023.3090209960937 1018.2230224609375 1017.1220092773437 1016.989990234375
1537.2889404296875 1531.5889892578125 1524.8800048828125 1517.8299560546875 1509.4420166015625 1501.1519775390625 1493.7330322265625 1486.6669921875 1479.89404296875 1470.8349609375 1462.6529541015625 1453.8499755859375 1446.5240478515625 1438.97802734375 1431.1300048828125 1423.427001953125 1416.0579833984375 1409.3759765625 1402.886962890625 1396.344970703125 1389.3599853515625 1383.06494140625 1376.384033203125 1370.04296875 1363.134033203125 1356.1689453125 1349.5880126953125 1343.156982421875 1336.1259765625 1330.0250244140625 1323.4749755859375 1317.7650146484375 1311.512939453125 1305.5689697265625 1299.7979736328125 1294.18505859375 1288.822998046875 1282.791015625 1278.10595703125 1277.7779541015625 1272.9110107421875 1269.2459716796875 1266.3189697265625 1263.636962890625 1258.1300048828125 1251.739990234375 1249.239013671875 1244.2960205078125 1236.4749755859375 1228.2640380859375 1219.9010009765625 1212.4129638671875 1207.18701171875 1203.114013671875 1198.8380126953125 1194.3470458984375 1189.447021484375 1184.760009765625 1180.698974609375 1177.876953125 1174.22802734375 1167.9510498046875 1157.9510498046875 1151.4310302734375 1142.760986328125 1138.5589599609375 1135.470947265625 1132.7530517578125 1128.7159423828125 1124.2860107421875 1120.5989990234375 1116.8800048828125 1113.2550048828125 1110.31298828125 1109.115966796875 1109.9200439453125 1111.053955078125 1112.6400146484375 1114.6259765625 1115.93701171875 1112.5679931640625 1115.89501953125 1115.89599609375 1114.2679443359375 1115.6219482421875 1117.1390380859375 1114.614013671875 1112.1810302734375 1108.010986328125 1102.7099609375 1098.0589599609375 1092.0279541015625 1086.9990234375 1080.9610595703125 1074.905029296875 1069.803955078125 1063.2740478515625 1057.449951171875 1049.490966796875 1038.406982421875 1027.5970458984375 1018.9819946289062 1017.1729736328125 1016.4229736328125 1018.2620239257812 1020.2689819335937 1021.0960083007812 1021.0449829101562 1020.8930053710937 1021.9180297851562 1023.3469848632812 1028.074951171875 1032.2159423828125 1035.636962890625 1039.1829833984375 1039.83203125 1041.1669921875 1044.9949951171875 1049.125 1053.741943359375 1057.3719482421875 1057.9530029296875 1054.8289794921875 1063.4749755859375 1069.822998046875 1073.6929931640625 1077.0450439453125 1078.696044921875 1079.64697265625 1080.887939453125 1083.1920166015625 1084.720947265625 1084.7989501953125 1084.9200439453125 1084.7239990234375 1084.56201171875 1084.760009765625 1085.93798828125 1086.4749755859375 1087.666015625 1089.4110107421875 1091.0240478515625 1090.8570556640625 1091.6009521484375 1090.218017578125 1089.0479736328125 1087.1910400390625 1085.529052734375 1084.2449951171875 1082.9599609375 1081.9639892578125 1078.6729736328125 1073.95703125 1071.1800537109375 1067.2919921875 1062.5389404296875 1057.8089599609375 1052.677978515625 1048.3609619140625 1042.9749755859375 1039.5899658203125 1038.1700439453125 1034.68505859375 1030.365966796875 1025.3740234375 1018.3049926757812 1015.2620239257812 1014.9190063476562
1532.969970703125 1529.1400146484375 1522.68701171875 1515.3509521484375 1506.6610107421875 1498.260986328125 1490.9649658203125 1483.7359619140625 1475.800048828125 1466.531982421875 1458.9840087890625 1451.27197265625 1443.4300537109375 1436.5689697265625 1429.8260498046875 1423.18798828125 1416.1619873046875 1408.323974609375 1401.5169677734375 1395.6719970703125 1389.9840087890625 1385.073974609375 1378.887939453125 1372.490966796875 1365.7740478515625 1357.5830078125 1351.4310302734375 1344.22900390625 1337.696044921875 1330.8590087890625 1324.906982421875 1319.239990234375 1313.35595703125 1307.0780029296875 1301.467041015625 1295.553955078125 1289.85302734375 1285.303955078125 1279.3189697265625 1277.154052734375 1272.800048828125 1267.9930419921875 1262.949951171875 1257.9849853515625 1251.345947265625 1246.5579833984375 1238.1510009765625 1234.3330078125 1230.7349853515625 1221.3270263671875 1212.4510498046875 1204.5570068359375 1198.344970703125 1195.72998046875 1192.5550537109375 1188.2669677734375 1183.0770263671875 1178.3380126953125 1174.0460205078125 1170.1910400390625 1167.126953125 1163.9630126953125 1157.4620361328125 1153.7259521484375 1147.345947265625 1141.45703125 1134.218017578125 1130.4549560546875 1126.612060546875 1123.06396484375 1118.873046875 1115.238037109375 1111.43994140625 1108 1104.6400146484375 1102.39599609375 1103.1929931640625 1104.7550048828125 1106.719970703125 1107.3919677734375 1105.4310302734375 1108.998046875 1110.1729736328125 1109.4820556640625 1110.511962890625 1112.904052734375 1111.3609619140625 1109.3900146484375 1106.491943359375 1101.7769775390625 1096.9539794921875 1090.8740234375 1085.7760009765625 1079.8609619140625 1073.6490478515625 1067.8399658203125 1062.6810302734375 1056.5479736328125 1049.241943359375 1040.550048828125 1029.666015625 1020.3800048828125 1014.7379760742187 1012.9530029296875 1013.947021484375 1017.64697265625 1017.6199951171875 1017.4630126953125 1017.7969970703125 1018.3200073242187 1020.0900268554687 1022.968017578125 1027.633056640625 1031.18798828125 1034.5469970703125 1033.9859619140625 1034.14599609375 1039.27001953125 1045.2220458984375 1046.5040283203125 1049.56494140625 1050.595947265625 1054.2530517578125 1061.2060546875 1065.553955078125 1069.137939453125 1073.3489990234375 1076.4739990234375 1076.6190185546875 1077.06103515625 1078.4210205078125 1080.0169677734375 1080.8780517578125 1081.7559814453125 1081.5889892578125 1081.6619873046875 1081.3060302734375 1082.14794921875 1083.56005859375 1085.2889404296875 1086.907958984375 1087.510009765625 1086.844970703125 1086.47705078125 1085.760986328125 1084.699951171875 1082.9029541015625 1081.14697265625 1080.7239990234375 1080.10498046875 1078.68994140625 1078.2039794921875 1075.260009765625 1072.8489990234375 1070.0260009765625 1065.02001953125 1061.073974609375 1056.1209716796875 1050.2049560546875 1044.613037109375 1038.76904296875 1033.9739990234375 1031.011962890625 1026.93896484375 1022.1599731445312 1016.968017578125 1012.6329956054687 1012.3839721679687
1527.6180419921875 1523.072021484375 1519.512939453125 1512.2659912109375 1504.8160400390625 1496.2950439453125 1488.626953125 1480.7459716796875 1472.9580078125 1465.22802734375 1456.6949462890625 1449.18505859375 1441.1419677734375 1433.947998046875 1426.552001953125 1420.416015625 1414.5389404296875 1407.614013671875 1399.81494140625 1393.155029296875 1388.0870361328125 1383.6689453125 1379.385986328125 1373.60400390625 1367.1829833984375 1359.9310302734375 1353.0889892578125 1346.614990234375 1340.572021484375 1334.156005859375 1328.345947265625 1322.76904296875 1316.6800537109375 1309.699951171875 1303.637939453125 1297.9410400390625 1292.2569580078125 1287.260009765625 1282.7939453125 1279.030029296875 1276.116943359375 1271.54296875 1266.7060546875 1261.91796875 1257.85400390625 1251.97998046875 1243.531982421875 1234.9320068359375 1228.5889892578125 1221.2939453125 1210.6090087890625 1205.9560546875 1199.1190185546875 1191.6820068359375 1183.7490234375 1179.8470458984375 1177.3780517578125 1173.4949951171875 1168.56298828125 1163.6920166015625 1159.928955078125 1155.9720458984375 1153.9720458984375 1149.7469482421875 1146.281005859375 1144.0250244140625 1140.0419921875 1133.89697265625 1126.6319580078125 1120.9239501953125 1116.8380126953125 1113.5570068359375 1109.9150390625 1106.2679443359375 1102.7679443359375 1099.2860107421875 1096.52294921875 1096.405029296875 1098.3759765625 1099.470947265625 1099.0699462890625 1101.363037109375 1103.29296875 1102.43701171875 1104.949951171875 1108.3489990234375 1108.20703125 1106.52197265625 1105.06103515625 1100.9029541015625 1095.9139404296875 1090.89599609375 1085.1810302734375 1079.77001953125 1073.8499755859375 1067.10302734375 1062.0699462890625 1056.009033203125 1048.60400390625 1038.197021484375 1028.9219970703125 1020.2150268554687 1015.1749877929687 1010.5609741210937 1009.6729736328125 1011.4240112304687 1014.239013671875 1015.3469848632812 1015.0570068359375 1014.7670288085937 1015.739013671875 1018.7139892578125 1022.1719970703125 1026.5830078125 1029.41796875 1028.592041015625 1031.8719482421875 1037.6259765625 1040.053955078125 1038.5469970703125 1041.1810302734375 1043.4659423828125 1053.2130126953125 1058.448974609375 1061.2159423828125 1065.2249755859375 1069.68994140625 1074.10400390625 1074.345947265625 1073.8179931640625 1074.343017578125 1075.93994140625 1077.2669677734375 1077.989990234375 1078.3509521484375 1078.343994140625 1078.8699951171875 1080.5880126953125 1082.06298828125 1083.4849853515625 1084.3900146484375 1084.18701171875 1082.7989501953125 1081.8719482421875 1080.8709716796875 1079.6109619140625 1078.6729736328125 1077.7080078125 1077.154052734375 1076.4599609375 1076.31396484375 1076.2850341796875 1075.0780029296875 1073.56005859375 1070.883056640625 1067.4320068359375 1062.9840087890625 1057.06396484375 1051.656005859375 1045.5560302734375 1039.3409423828125 1033.4539794921875 1027.56494140625 1020.9290161132812 1018.093994140625 1013.8410034179687 1010.5759887695312 1010.81298828125
1525.1719970703125 1518.6669921875 1513.4129638671875 1508.7130126953125 1502.14599609375 1495.85205078125 1487.35595703125 1480.383056640625 1473.1820068359375 1466.0150146484375 1459.3990478515625 1453.1300048828125 1444.532958984375 1436.239990234375 1426.696044921875 1419.907958984375 1411.3609619140625 1404.68505859375 1398.7960205078125 1391.696044921875 1385.6190185546875 1380.781982421875 1375.238037109375 1371.583984375 1366.655029296875 1361.77197265625 1356.281982421875 1350.5889892578125 1344.803955078125 1339.06494140625 1332.5469970703125 1326.593017578125 1320.60498046875 1313.5400390625 1307.1920166015625 1301.5150146484375 1296.85498046875 1291.9990234375 1286.8370361328125 1284.2039794921875 1280.35595703125 1275.6639404296875 1272.9849853515625 1268.6669921875 1262.9599609375 1257.552001953125 1250.3470458984375 1244.0350341796875 1241.1619873046875 1234.0419921875 1219.258056640625 1210.947998046875 1202.7540283203125 1195.2760009765625 1188.760009765625 1181.5460205078125 1174.1810302734375 1166.6519775390625 1162.906982421875 1157.2030029296875 1154.199951171875 1150.43701171875 1147.0360107421875 1143.6820068359375 1140.8089599609375 1138.97802734375 1137.260009765625 1135.448974609375 1130.31201171875 1123.9759521484375 1117.4119873046875 1110.6300048828125 1107.625 1104.5169677734375 1100.803955078125 1097.3990478515625 1094.0009765625 1091.156005859375 1090.2779541015625 1091.91796875 1091.7979736328125 1093.6309814453125 1095.2230224609375 1094.6300048828125 1098.9990234375 1102.64404296875 1103.594970703125 1103.3780517578125 1101.97900390625 1100.050048828125 1095.2640380859375 1089.6240234375 1084.281005859375 1079.364013671875 1073.593994140625 1067.469970703125 1061.446044921875 1055.0489501953125 1045.072998046875 1036.4940185546875 1027.803955078125 1020.8900146484375 1014.3389892578125 1011.1699829101562 1006.1619873046875 1007.5139770507812 1010.9819946289062 1012.6890258789062 1012.0460205078125 1011.8309936523437 1011.958984375 1013.948974609375 1016.6430053710937 1019.9910278320312 1023.7369995117187 1025.0760498046875 1029.8890380859375 1033.032958984375 1033.79296875 1030.89697265625 1035.7950439453125 1044.925048828125 1050.623046875 1053.9620361328125 1056.0589599609375 1061.5830078125 1066.79296875 1071.5250244140625 1072.4019775390625 1071.8299560546875 1071.85400390625 1073.1190185546875 1074.2110595703125 1074.5780029296875 1074.612060546875 1076.4830322265625 1078.0899658203125 1078.7330322265625 1079.5469970703125 1080.1820068359375 1080.3070068359375 1079.1009521484375 1077.9229736328125 1077.0279541015625 1076.177001953125 1075.5479736328125 1075.3929443359375 1074.6099853515625 1073.6280517578125 1073.4749755859375 1074.177001953125 1074.3680419921875 1073.676025390625 1073.3809814453125 1070.7860107421875 1067.5450439453125 1060.72998046875 1054.5460205078125 1049.6610107421875 1044.2110595703125 1038.7850341796875 1032.906982421875 1026.6610107421875 1021.2490234375 1014.1519775390625 1010.1810302734375 1008.93798828125 1012.75
1521.8070068359375 1515.011962890625 1508.241943359375 1502.68701171875 1497.823974609375 1491.8409423828125 1485.5169677734375 1478.333984375 1471.52099609375 1465.010009765625 1458.9010009765625 1452.470947265625 1445.56005859375 1437.258056640625 1427.68798828125 1419.134033203125 1411.446044921875 1404.5159912109375 1398.0469970703125 1390.6199951171875 1383.926025390625 1377.8499755859375 1371.803955078125 1366.5240478515625 1361.907958984375 1358.1300048828125 1353.9840087890625 1350.22900390625 1346.719970703125 1342.333984375 1336.573974609375 1330.7840576171875 1324.1429443359375 1318.2559814453125 1312.302001953125 1307.0050048828125 1302.362060546875 1296.2039794921875 1292.5980224609375 1288.748046875 1283.739013671875 1282.175048828125 1277.4830322265625 1274.47705078125 1267.862060546875 1263.4429931640625 1257.31298828125 1249.9090576171875 1241.89404296875 1234.06103515625 1221.822998046875 1213.1700439453125 1205.2879638671875 1197.404052734375 1189.6820068359375 1183.27001953125 1177.166015625 1170.5169677734375 1163.9969482421875 1155.89794921875 1151.56201171875 1144.0589599609375 1140.866943359375 1137.0870361328125 1134.5760498046875 1132.4210205078125 1130.64794921875 1128.6219482421875 1125.7540283203125 1123.4129638671875 1119.43798828125 1111.5279541015625 1104.9229736328125 1102.5770263671875 1098.6590576171875 1095.3280029296875 1091.7540283203125 1088.698974609375 1086.02001953125 1085.52197265625 1086.1810302734375 1086.333984375 1087.0360107421875 1088.5660400390625 1092.4110107421875 1095.2850341796875 1096.3680419921875 1097.281005859375 1098.39599609375 1097.029052734375 1094.7679443359375 1090.0830078125 1084.5999755859375 1079.136962890625 1074.137939453125 1068.614990234375 1061.64697265625 1057.1309814453125 1046.4610595703125 1038.1259765625 1029.9090576171875 1022.4190063476562 1013.885986328125 1009.1680297851562 1005.0809936523437 1005.2570190429687 1007.2379760742187 1009.5809936523437 1009.2620239257812 1008.6480102539062 1008.8629760742187 1009.864013671875 1011.4509887695312 1015.427001953125 1018.1790161132812 1021.2789916992187 1025.1650390625 1027.9439697265625 1026.97900390625 1029.7750244140625 1037.52099609375 1041.698974609375 1045.490966796875 1045.6109619140625 1050.8470458984375 1057.8389892578125 1062.8890380859375 1068.10400390625 1070.9580078125 1070.2349853515625 1070.1910400390625 1071.0159912109375 1071.3680419921875 1071.5400390625 1072.9339599609375 1073.8310546875 1075.177978515625 1075.760009765625 1076.178955078125 1076.4010009765625 1075.7099609375 1074.425048828125 1073.343994140625 1072.3360595703125 1072.072998046875 1071.6109619140625 1071.6669921875 1071.0269775390625 1069.9859619140625 1069.842041015625 1070.56005859375 1072.2969970703125 1072.97705078125 1072.1839599609375 1068.6529541015625 1065.137939453125 1051.60498046875 1049.3050537109375 1046.9110107421875 1041.5679931640625 1037.1929931640625 1031.366943359375 1023.72900390625 1017.8690185546875 1011.02099609375 1007.0609741210937 1007.8060302734375 1013.583984375
1521.2900390625 1513.01904296875 1506.0240478515625 1497.7220458984375 1490.9830322265625 1486.9599609375 1481.1650390625 1475.0250244140625 1468.4019775390625 1462.1669921875 1456.31396484375 1450.447021484375 1443.02197265625 1436.06103515625 1427.8699951171875 1420.39697265625 1412.45703125 1405.0439453125 1399.842041015625 1393.18896484375 1386.925048828125 1379.7559814453125 1372.89404296875 1366.363037109375 1359.6710205078125 1352.10498046875 1349.634033203125 1344.5140380859375 1341.2559814453125 1338.1820068359375 1335.6639404296875 1332.487060546875 1328.2960205078125 1323.447998046875 1317.7750244140625 1311.81103515625 1307.1650390625 1302.362060546875 1297.47705078125 1292.3349609375 1287.9940185546875 1283.696044921875 1279.3199462890625 1274.218017578125 1270.8079833984375 1266.06201171875 1258.759033203125 1249.781005859375 1241.79296875 1234.1650390625 1226.3380126953125 1215.8470458984375 1207.9219970703125 1199.863037109375 1192.1939697265625 1185.1209716796875 1178.720947265625 1171.4560546875 1164.574951171875 1157.7139892578125 1151.64501953125 1145.510009765625 1139.52197265625 1134.5980224609375 1129.5400390625 1126.3599853515625 1124 1121.9659423828125 1119.0450439453125 1116.47900390625 1114.3189697265625 1109.4019775390625 1103.9169921875 1098.821044921875 1097.04296875 1092.60302734375 1089.1839599609375 1086.467041015625 1083.4010009765625 1081.176025390625 1080.81005859375 1080.2569580078125 1082.0269775390625 1083.4129638671875 1085.6080322265625 1087.719970703125 1088.843994140625 1090.5479736328125 1091.5369873046875 1092.8160400390625 1091.9620361328125 1090.22998046875 1085.5069580078125 1080.1240234375 1074.26904296875 1068.5660400390625 1061.3409423828125 1057.9219970703125 1050.3399658203125 1042.116943359375 1034.116943359375 1025.0780029296875 1015.8740234375 1008.7949829101562 1003.208984375 1002.781005859375 1003.1190185546875 1006.4130249023437 1006.6690063476562 1006.1430053710937 1006.4229736328125 1006 1007.5189819335937 1011.0150146484375 1013.5089721679687 1013.0709838867187 1019.5020141601562 1019.6300048828125 1021.47802734375 1029.18505859375 1034.1939697265625 1037.2020263671875 1038.2110595703125 1041.1719970703125 1048.0350341796875 1050.7020263671875 1056.574951171875 1064.699951171875 1069.22998046875 1068.720947265625 1068.240966796875 1066.5970458984375 1069.3919677734375 1069.81396484375 1069.8260498046875 1071.68798828125 1072.0579833984375 1072.384033203125 1072.282958984375 1072.2850341796875 1070.9310302734375 1069.511962890625 1068.510009765625 1067.3590087890625 1066.739990234375 1067.0980224609375 1067.0999755859375 1066.863037109375 1065.7860107421875 1065.821044921875 1065.3270263671875 1067.2840576171875 1070.467041015625 1070.760009765625 1067.98095703125 1064.0050048828125 1048.60400390625 1043.720947265625 1040.1500244140625 1037.8819580078125 1034.3389892578125 1026.0970458984375 1019.0700073242187 1012.64599609375 1006.8359985351562 1003.4769897460937 1006.9569702148437 1013.208984375
1520.948974609375 1513.508056640625 1506.0340576171875 1498.552978515625 1491.9610595703125 1483.5909423828125 1475.0770263671875 1469.2509765625 1464.9139404296875 1459.1619873046875 1452.7979736328125 1446.240966796875 1439.655029296875 1433.552978515625 1426.1529541015625 1419.9110107421875 1413.8330078125 1407.738037109375 1401.218017578125 1393.822021484375 1387.8070068359375 1380.6949462890625 1373.958984375 1367.1199951171875 1359.614990234375 1352.6259765625 1346.2159423828125 1339.551025390625 1335.9949951171875 1332.4959716796875 1329.4730224609375 1326.5660400390625 1323.8349609375 1321.0400390625 1317.614990234375 1312.85302734375 1308.1219482421875 1302.2459716796875 1297.262939453125 1291.2320556640625 1286.237060546875 1281.498046875 1277.4219970703125 1273.009033203125 1269.56494140625 1265.387939453125 1258.1619873046875 1249.447021484375 1240.85498046875 1232.6099853515625 1225.0760498046875 1216.93798828125 1208.885009765625 1201.6600341796875 1196.4339599609375 1188.77001953125 1180.81103515625 1173.6209716796875 1166.926025390625 1160.0909423828125 1153.7120361328125 1146.321044921875 1139.6939697265625 1133.0400390625 1128.114013671875 1123.906005859375 1119.2840576171875 1116.4639892578125 1112.9530029296875 1109.8299560546875 1106.407958984375 1102.676025390625 1098.116943359375 1094.801025390625 1093.6910400390625 1089.7110595703125 1086.571044921875 1083.6109619140625 1080.9169921875 1078.4649658203125 1076.594970703125 1075.81298828125 1076.4090576171875 1077.199951171875 1078.9449462890625 1080.6729736328125 1081.64404296875 1082.9219970703125 1083.0989990234375 1086.45703125 1088.427001953125 1087.51904296875 1084.3780517578125 1079.822998046875 1073.7939453125 1066.9940185546875 1059.4599609375 1053.5570068359375 1045.5760498046875 1039.529052734375 1033.166015625 1025.541015625 1017.6519775390625 1009.2860107421875 1002.3670043945312 999.760009765625 998.87701416015625 1004.0289916992187 1004.1300048828125 1002.8150024414062 1002.2050170898437 1002.8579711914062 1005.10400390625 1006.3809814453125 1006.9110107421875 1010.0260009765625 1011.8209838867187 1015.2039794921875 1020.3309936523437 1025.916015625 1028.592041015625 1030.81298828125 1033.425048828125 1039.4129638671875 1041.08203125 1046.1600341796875 1053.8389892578125 1062.4639892578125 1067.510986328125 1067.5789794921875 1066.7349853515625 1066.7010498046875 1066.75 1067.010986328125 1067.1099853515625 1068.552978515625 1068.739990234375 1068.657958984375 1068.5970458984375 1068.5179443359375 1066.8780517578125 1065.0389404296875 1063.8380126953125 1062.823974609375 1061.9849853515625 1062.166015625 1061.9439697265625 1062.0059814453125 1061.553955078125 1060.31201171875 1058.758056640625 1060.2220458984375 1063.9720458984375 1066.2469482421875 1066.5250244140625 1053.177978515625 1044.6920166015625 1038.866943359375 1034.0050048828125 1031.406005859375 1027.0379638671875 1022.3629760742187 1014.280029296875 1007.5139770507812 1002.1420288085937 1000.843017578125 1006.5900268554687 1012.635986328125
1521.345947265625 1514.52294921875 1508.8389892578125 1502.2659912109375 1495.116943359375 1486.5999755859375 1478.5250244140625 1470.8509521484375 1463.634033203125 1456.93798828125 1450.241943359375 1445.198974609375 1437.697998046875 1430.1500244140625 1424.072021484375 1417.81396484375 1411.6829833984375 1406.3719482421875 1400.2860107421875 1392.364013671875 1386.416015625 1379.5579833984375 1372.946044921875 1366.133056640625 1359.8929443359375 1352.6839599609375 1345.947998046875 1339.739990234375 1333.6929931640625 1326.4959716796875 1323.613037109375 1319.8570556640625 1317.0400390625 1313.68798828125 1310.655029296875 1307.302978515625 1302.9129638671875 1299.1639404296875 1294.866943359375 1289.156982421875 1284.333984375 1279.5770263671875 1275.0059814453125 1271.4730224609375 1267.3370361328125 1262.76904296875 1258.0260009765625 1250.27197265625 1243.092041015625 1234.6650390625 1226.987060546875 1219.780029296875 1213.43896484375 1207.822998046875 1199.6920166015625 1191.657958984375 1184.02001953125 1176.3890380859375 1169.010986328125 1161.9849853515625 1154.4940185546875 1147.4229736328125 1140.0909423828125 1133.613037109375 1127.529052734375 1122.43798828125 1118.1400146484375 1113.6409912109375 1110.47900390625 1106.1590576171875 1101.8590087890625 1097.68603515625 1094.4239501953125 1091.56103515625 1090.0760498046875 1087.22998046875 1084.4169921875 1081.25 1078.510986328125 1076.0849609375 1073.5360107421875 1071.89794921875 1070.4329833984375 1070.802978515625 1071.6689453125 1073.7220458984375 1075.7259521484375 1076.9610595703125 1076.4320068359375 1077.364013671875 1079.4639892578125 1083.06005859375 1081.1319580078125 1078.4310302734375 1072.781005859375 1064.3280029296875 1058.5870361328125 1049.7349853515625 1042.43896484375 1033.8409423828125 1028.406982421875 1021.927978515625 1015.22900390625 1008.7540283203125 1001.1580200195312 996.11297607421875 995.52001953125 1000.0360107421875 1001.4240112304687 999.61700439453125 999.81298828125 999.0780029296875 1000.1610107421875 1001.6170043945312 1002.6690063476562 1005.3980102539062 1008.7059936523437 1010.7490234375 1017.1409912109375 1021.2670288085937 1023.385986328125 1026.115966796875 1030.7039794921875 1033.447021484375 1039.248046875 1047.7349853515625 1054.7099609375 1060.72998046875 1065.89599609375 1066.1719970703125 1064.574951171875 1062.4639892578125 1064.0909423828125 1064.5050048828125 1064.407958984375 1065.85498046875 1067.532958984375 1067.2139892578125 1066.0169677734375 1065.3699951171875 1062.8790283203125 1060.93994140625 1059.885009765625 1058.5849609375 1057.6820068359375 1058.0260009765625 1057.6629638671875 1056.98095703125 1056.1180419921875 1054.385986328125 1052.383056640625 1053.7769775390625 1055.7110595703125 1053.02197265625 1050.2049560546875 1045.76904296875 1039.4639892578125 1033.68798828125 1029.2559814453125 1024.31201171875 1019.6300048828125 1015.4099731445312 1010.051025390625 1003.1119995117187 998.40802001953125 999.61297607421875 1005.8250122070312 1011.31298828125
1527.5989990234375 1520.718017578125 1513.68701171875 1503.677001953125 1495.5570068359375 1487.02099609375 1479.52197265625 1471.7889404296875 1462.8900146484375 1455.6829833984375 1448.5379638671875 1441.56494140625 1435.2430419921875 1428.9560546875 1422.2900390625 1414.8310546875 1408.7130126953125 1403.83203125 1397.60498046875 1391.989013671875 1385.8909912109375 1379.8070068359375 1373.550048828125 1367.7049560546875 1360.123046875 1353.489013671875 1346.6280517578125 1340.9990234375 1334.1629638671875 1328.387939453125 1321.303955078125 1315.14599609375 1310.4560546875 1307.593017578125 1303.7130126953125 1299.9210205078125 1296.2769775390625 1292.2669677734375 1289.72998046875 1286.72802734375 1282.4410400390625 1277.1409912109375 1273.373046875 1269.4189453125 1264.364013671875 1259.583984375 1255.4959716796875 1250.9739990234375 1245.5009765625 1238.77197265625 1232.56201171875 1226.572998046875 1221.803955078125 1220.4139404296875 1206.385009765625 1196.06396484375 1187.2010498046875 1179.427001953125 1171.0589599609375 1163.10498046875 1154.718017578125 1148.5889892578125 1141.875 1135.072021484375 1128.5560302734375 1121.803955078125 1116.470947265625 1112.43505859375 1108.43505859375 1104.885986328125 1101.7110595703125 1097.135986328125 1093.5059814453125 1090.5770263671875 1087.739990234375 1085.1199951171875 1082.43505859375 1079.52099609375 1076.7469482421875 1073.907958984375 1071.2889404296875 1068.947998046875 1067.0909423828125 1065.178955078125 1065.3050537109375 1067.072998046875 1069.843017578125 1071.5379638671875 1071.5980224609375 1071.843017578125 1072.218017578125 1073.9420166015625 1077.904052734375 1076.1939697265625 1071.93701171875 1064.9310302734375 1057.9189453125 1047.9019775390625 1039.5889892578125 1031.0250244140625 1023.364013671875 1016.3200073242187 1009.8599853515625 1004.6240234375 1000.60400390625 996.31402587890625 992.11700439453125 998.41998291015625 998.63800048828125 996.97100830078125 995.89697265625 995.72802734375 996.60400390625 996.93499755859375 999.14300537109375 1002.6599731445312 1005.4429931640625 1007.4600219726562 1012.1160278320312 1015.5980224609375 1017.5770263671875 1021.5960083007812 1025.905029296875 1033.5169677734375 1041.4429931640625 1047.5469970703125 1053.4429931640625 1059.8800048828125 1063.0169677734375 1063.239990234375 1063.27197265625 1060.8699951171875 1061.52099609375 1061.31201171875 1062.2440185546875 1063.6600341796875 1065.302978515625 1064.678955078125 1063.10400390625 1060.8800048828125 1058.91796875 1057.6080322265625 1056.5340576171875 1054.6490478515625 1053.1839599609375 1052.4580078125 1050.654052734375 1050.2919921875 1050.2340087890625 1048.6910400390625 1046.842041015625 1046.583984375 1046.134033203125 1044.3280029296875 1042.0589599609375 1038.7559814453125 1035.6500244140625 1031.0260009765625 1025.5400390625 1020.6190185546875 1015.7999877929687 1010.3820190429687 1004.9959716796875 1000.2559814453125 996.5889892578125 996.89398193359375 1001.7789916992187 1007.06298828125
1531.5059814453125 1523.2440185546875 1514.553955078125 1505.56005859375 1496.864013671875 1487.2550048828125 1479.27001953125 1470.9000244140625 1462.93896484375 1454.9820556640625 1447.7249755859375 1440.93798828125 1433.9129638671875 1426.3800048828125 1419.449951171875 1413.9439697265625 1405.259033203125 1400.6400146484375 1394.43798828125 1388.7919921875 1382.6510009765625 1377.0179443359375 1371.281005859375 1366.14404296875 1360.614013671875 1355.074951171875 1349.9749755859375 1343.64794921875 1337.3280029296875 1330.177001953125 1322.3270263671875 1315.532958984375 1308.8599853515625 1302.052001953125 1298.0760498046875 1294.1390380859375 1289.7340087890625 1285.9959716796875 1283.1419677734375 1280.8590087890625 1277.3759765625 1274.718994140625 1268.8409423828125 1266.8599853515625 1261.239990234375 1256.719970703125 1252.114990234375 1248.1610107421875 1244.501953125 1239.926025390625 1235.366943359375 1231.2939453125 1227.198974609375 1222.0269775390625 1211.89794921875 1198.5400390625 1189.10400390625 1181.280029296875 1172.469970703125 1164.7449951171875 1156.7559814453125 1152.5789794921875 1145.5059814453125 1138.634033203125 1131.906005859375 1125.0260009765625 1119.1390380859375 1114.41796875 1110.56103515625 1105.510986328125 1101.0849609375 1097.7239990234375 1094.758056640625 1089.761962890625 1086.261962890625 1083.4630126953125 1080.68505859375 1078.31005859375 1075.365966796875 1072.322021484375 1069.5040283203125 1066.845947265625 1064.56005859375 1062.302001953125 1060.3890380859375 1060.8919677734375 1063.365966796875 1065.68701171875 1066.3060302734375 1066.219970703125 1066.5830078125 1067.1390380859375 1070.1109619140625 1072.3680419921875 1069.9169921875 1066.04296875 1057.2669677734375 1049.9580078125 1040.5570068359375 1033.906982421875 1026.041015625 1018.5570068359375 1012.802978515625 1004.6580200195312 999.3079833984375 995.25201416015625 991.156982421875 989.86798095703125 993.75701904296875 993.76202392578125 993.01202392578125 992.11700439453125 992.7559814453125 994.22100830078125 994.489990234375 998.84600830078125 1002.1500244140625 1004.4829711914062 1008.0170288085937 1011.6389770507812 1014.8610229492187 1021.781982421875 1029.25 1036.0169677734375 1041.656982421875 1047.27294921875 1053.10595703125 1058.2559814453125 1060.27294921875 1063.553955078125 1062.0989990234375 1059.583984375 1057.9429931640625 1058.6839599609375 1059.7869873046875 1061.72900390625 1062.3929443359375 1061.593017578125 1058.7979736328125 1056.8800048828125 1054.4200439453125 1052.41796875 1050.633056640625 1048.7750244140625 1046.8189697265625 1045.448974609375 1044.239990234375 1044.114990234375 1044.6729736328125 1043.333984375 1041.06201171875 1039.2969970703125 1038.60302734375 1037.0460205078125 1034.761962890625 1031.876953125 1028.9720458984375 1026.31494140625 1022.4089965820312 1017.6489868164062 1012.7670288085937 1007.8930053710937 1003.530029296875 999.06402587890625 995.73797607421875 994.072021484375 997.969970703125 1002.9719848632812
